<?xml version="1.0"?>
<opencv_storage>
<depth type_id="opencv-matrix">
  <rows>32</rows>
  <cols>216</cols>
  <dt>f</dt>
  <data>
    6.61433533e+02 6.22110901e+02 5.88301453e+02 5.63086853e+02 5.52486572e+02 5.45497131e+02 5.42699463e+02 5.39659180e+02 5.37915710e+02 5.36174866e+02 5.36014465e+02 5.34656982e+02 5.34422607e+02 5.33559692e+02 0. 0. 0. 0. 0. 0. 0. 0. 0. 0. 0. 0. 0. 0. 0. 0. 0. 0. 0. 0. 0. 0. 0. 0. 0. 0. 0. 5.41291016e+02 5.42428406e+02 5.45084229e+02 5.49798889e+02 5.52778625e+02 5.57398926e+02 5.64841370e+02 5.88873047e+02 6.55399780e+02 7.01252502e+02 7.11220886e+02 7.15059570e+02 7.18385193e+02 7.21298706e+02 7.24412048e+02 7.26910095e+02 7.28108032e+02 7.29562561e+02 7.31732788e+02 7.33480225e+02 7.34575989e+02 7.32786682e+02 7.34100525e+02 7.45852478e+02 7.45198486e+02 7.46297974e+02 7.45131836e+02 7.54855164e+02 7.68785950e+02 8.09869568e+02 8.50973572e+02 8.75191833e+02 8.85452637e+02 8.80162659e+02 8.64429749e+02 8.74065125e+02 9.23334167e+02 9.44863831e+02 9.50999756e+02 9.52278931e+02 9.52264771e+02 9.53421082e+02 9.54498962e+02 9.54770020e+02 9.53738892e+02 9.53366455e+02 9.52659851e+02 9.54704590e+02 9.55557739e+02 9.57347046e+02 9.55750916e+02 9.55424377e+02 9.54431213e+02 9.56026855e+02 9.57223999e+02 9.58073364e+02 9.57981323e+02 9.58505920e+02 9.57874268e+02 9.56562195e+02 9.55530212e+02 9.56327209e+02 9.57519470e+02 9.57882202e+02 9.57569885e+02 9.55827209e+02 9.54979309e+02 9.55668030e+02 9.55830078e+02 9.56346130e+02 9.56490601e+02 9.57530579e+02 9.57791138e+02 9.56103821e+02 9.57092163e+02 9.55777710e+02 9.56382751e+02 9.55819946e+02 9.56217346e+02 9.56956970e+02 9.55821777e+02 9.57799500e+02 9.57674438e+02 9.58617004e+02 9.58236938e+02 9.58198608e+02 9.58444580e+02 9.59073425e+02 9.59215210e+02 9.58694092e+02 9.57649719e+02 9.56683289e+02 9.57361328e+02 9.56699646e+02 9.57749390e+02 9.57876282e+02 9.58962769e+02 9.58275024e+02 9.57680359e+02 9.55913208e+02 9.55422852e+02 9.54449219e+02 9.54919250e+02 9.57296753e+02 9.59133301e+02 9.60278748e+02 9.58050110e+02 9.55377258e+02 9.53133423e+02 9.54226746e+02 9.55995667e+02 9.56561707e+02 9.55150757e+02 9.55227722e+02 9.54847290e+02 9.55095520e+02 9.53807495e+02 9.55413818e+02 9.55573853e+02 9.56192566e+02 9.54459900e+02 9.53517578e+02 9.52908752e+02 9.53939331e+02 9.53260803e+02 9.55146606e+02 9.51375732e+02 0. 0. 1.78201099e+03 1.78004919e+03 1.77986572e+03 1.77855042e+03 1.77729700e+03 1.77938013e+03 1.78135962e+03 1.78159290e+03 1.78086511e+03 1.78007483e+03 1.77968347e+03 1.77708472e+03 1.77670801e+03 1.77545923e+03 1.77512634e+03 1.77424585e+03 1.77625793e+03 1779. 1.77796240e+03 1.77701379e+03 1.77599011e+03 1.77707617e+03 1.77836768e+03 1.77888672e+03 1.78023621e+03 1.77912048e+03 1.77634998e+03 1.77186841e+03 1.77196143e+03 1.77683923e+03 1.78079419e+03 1.78134448e+03 1.77932666e+03 1.77689490e+03 1.77546606e+03 1.77529089e+03 1.77619775e+03 1.77683936e+03 1.77695154e+03 1.77586633e+03 1.77444836e+03 1.77386182e+03 1.77506189e+03 1.77649109e+03 1.77704639e+03 1.77587817e+03
    6.51641479e+02 6.11413635e+02 5.79009949e+02 5.61564087e+02 5.52639709e+02 5.48095703e+02 5.44925476e+02 5.43334900e+02 5.40348816e+02 5.38843994e+02 5.37020752e+02 5.36436035e+02 0. 0. 0. 0. 0. 0. 0. 0. 0. 0. 0. 0. 0. 0. 0. 0. 0. 0. 0. 0. 0. 0. 0. 0. 0. 0. 0. 0. 0. 5.43573120e+02 5.45237244e+02 5.48864868e+02 5.52296448e+02 5.56016479e+02 5.60828796e+02 5.70975098e+02 5.96351379e+02 6.69035706e+02 7.07498108e+02 7.15377869e+02 7.19399841e+02 7.23185791e+02 7.26609924e+02 7.30232666e+02 7.31665466e+02 7.32238892e+02 7.32659363e+02 7.34292847e+02 7.36015320e+02 7.38155212e+02 7.38728882e+02 7.38514099e+02 7.47738647e+02 7.50118347e+02 7.51454773e+02 7.52056763e+02 7.66678406e+02 8.02889832e+02 8.54211243e+02 8.77366455e+02 8.85779968e+02 8.85621094e+02 8.73021362e+02 8.62241943e+02 8.93895752e+02 9.36784302e+02 9.48042175e+02 9.53796265e+02 9.54864746e+02 9.55477783e+02 9.55597473e+02 9.56103943e+02 9.57312683e+02 9.56990784e+02 9.56017456e+02 9.54952332e+02 9.55984863e+02 9.57292053e+02 9.58129944e+02 9.57402649e+02 9.56756775e+02 9.56519470e+02 9.57300659e+02 9.58286438e+02 9.59394531e+02 9.58833862e+02 9.58945923e+02 9.57642761e+02 9.56885071e+02 9.57325012e+02 9.57935364e+02 9.59207947e+02 9.58096252e+02 9.58169556e+02 9.56601685e+02 9.56160522e+02 9.56150879e+02 9.56453613e+02 9.56508057e+02 9.57449158e+02 9.58854858e+02 9.59665283e+02 9.57910095e+02 9.59339050e+02 9.57957458e+02 9.58733459e+02 9.56832825e+02 9.58072876e+02 9.59281921e+02 9.58984070e+02 9.60282104e+02 9.58884521e+02 9.59476257e+02 9.59994446e+02 9.61025879e+02 9.61720703e+02 9.59382263e+02 9.59985352e+02 9.59739197e+02 9.60803345e+02 9.59361145e+02 9.58396057e+02 9.57681274e+02 9.58096802e+02 9.58659180e+02 9.60495605e+02 9.59896790e+02 9.60037537e+02 9.56322510e+02 9.57415894e+02 9.56741028e+02 9.58271362e+02 9.57516541e+02 9.59725464e+02 9.61553894e+02 9.60572144e+02 9.55126709e+02 9.52737061e+02 9.53875793e+02 9.57368652e+02 9.57922974e+02 9.57843445e+02 9.58784302e+02 9.57785400e+02 9.57267456e+02 9.54369690e+02 9.56644043e+02 9.55521729e+02 9.57529297e+02 9.56229736e+02 9.57819031e+02 9.57916138e+02 9.55878845e+02 9.53122681e+02 9.52773865e+02 9.50486633e+02 0. 0. 1.78631641e+03 1.78503088e+03 1.78215649e+03 1.78068127e+03 1.77971082e+03 1.78044507e+03 1.78160913e+03 1.78208582e+03 1.78405420e+03 1.78399597e+03 1.78299817e+03 1.77993384e+03 1.77816638e+03 1.77746936e+03 1.77633374e+03 1.77717603e+03 1.77839075e+03 1.78125745e+03 1.78035925e+03 1.77989648e+03 1.77917432e+03 1.77982397e+03 1.78082568e+03 1.78139111e+03 1.78012500e+03 1.77919971e+03 1.77746887e+03 1.77617078e+03 1.77655225e+03 1.77805786e+03 1.77999072e+03 1.77965979e+03 1.77946863e+03 1.77719238e+03 1.77678589e+03 1.77876978e+03 1.77853784e+03 1.77896790e+03 1.77805249e+03 1.77830005e+03 1.77864014e+03 1.77745825e+03 1.78050354e+03 1.78041443e+03 1.77914575e+03 1.77685779e+03
    6.36200134e+02 5.95791504e+02 5.69689026e+02 5.54578308e+02 5.47929993e+02 5.43849609e+02 5.41787842e+02 5.40742371e+02 5.39272827e+02 5.37135254e+02 0. 5.35104187e+02 0. 0. 0. 0. 0. 0. 0. 0. 0. 0. 0. 0. 0. 0. 0. 0. 0. 0. 0. 0. 0. 0. 0. 0. 0. 0. 0. 0. 0. 5.43061035e+02 5.46226135e+02 5.48169250e+02 5.51960083e+02 5.54798706e+02 5.62161194e+02 5.73121399e+02 5.99159119e+02 6.61773193e+02 6.98355225e+02 7.10216919e+02 7.18443176e+02 7.22882935e+02 7.26023621e+02 7.29220276e+02 7.30484070e+02 7.31002930e+02 7.31760315e+02 7.34706970e+02 7.37366699e+02 7.40386414e+02 7.42713989e+02 7.44081909e+02 7.51908447e+02 7.59731873e+02 7.67364746e+02 7.76547791e+02 8.27816223e+02 8.64389099e+02 8.82764832e+02 8.88208679e+02 8.84166565e+02 8.71433044e+02 8.57488770e+02 8.70687622e+02 9.09865356e+02 9.37462585e+02 9.49411011e+02 9.53934998e+02 9.54681519e+02 9.54845337e+02 9.55154541e+02 9.55221375e+02 9.55976196e+02 9.55998230e+02 9.55213135e+02 9.54161560e+02 9.53684265e+02 9.54563232e+02 9.54991394e+02 9.54747620e+02 9.54604004e+02 9.54157715e+02 9.55572632e+02 9.56737183e+02 9.58158386e+02 9.56279968e+02 9.56102783e+02 9.54620850e+02 9.56211548e+02 9.57086426e+02 9.57927002e+02 9.57285156e+02 9.55277344e+02 9.55623108e+02 9.55174194e+02 9.55639771e+02 9.55486328e+02 9.55567139e+02 9.55487183e+02 9.55953369e+02 9.56647705e+02 9.57007568e+02 9.57139893e+02 9.58100891e+02 9.58016296e+02 9.57295105e+02 9.56226318e+02 9.56650330e+02 9.59323730e+02 9.59455017e+02 9.60578918e+02 9.57047119e+02 9.57092163e+02 9.56756714e+02 9.59004578e+02 9.60067444e+02 9.58442871e+02 9.58692505e+02 9.58577637e+02 9.58959534e+02 9.58438354e+02 9.56805603e+02 9.57702576e+02 9.56838623e+02 9.57939575e+02 9.58497253e+02 9.58520752e+02 9.58889893e+02 9.56107178e+02 9.56809937e+02 9.57010559e+02 9.58700562e+02 9.56345215e+02 9.55724670e+02 9.56460876e+02 9.57738220e+02 9.56009399e+02 9.54337769e+02 9.55172363e+02 9.57447144e+02 9.58902832e+02 9.58653198e+02 9.58443054e+02 9.56034485e+02 9.56243042e+02 9.54310608e+02 9.56838196e+02 9.53492065e+02 9.55612305e+02 9.55040649e+02 9.58206055e+02 9.57126892e+02 9.54947571e+02 9.52230591e+02 9.51839783e+02 9.50822754e+02 0. 0. 1.78641565e+03 1.78243848e+03 1.78101074e+03 1.77974658e+03 1.77811670e+03 1.77767334e+03 1.77824670e+03 1.77994946e+03 1.78097424e+03 1.78071216e+03 1.77933606e+03 1.77794275e+03 1.77726416e+03 1.77669214e+03 1.77559229e+03 1.77735767e+03 1.77943811e+03 1.77966724e+03 1.77841895e+03 1.77801978e+03 1.78057263e+03 1.77976355e+03 1.78148547e+03 1.78077808e+03 1.77945752e+03 1.77635303e+03 1.77648889e+03 1.77752344e+03 1.78021411e+03 1.77888574e+03 1.77862537e+03 1.77654541e+03 1.77692212e+03 1.77560010e+03 1.77525098e+03 1.77680933e+03 1.77646191e+03 1.77723132e+03 1.77719556e+03 1.77699316e+03 1.77631018e+03 1.77460840e+03 1.77832739e+03 1.77925928e+03 1.77880151e+03 1.77495581e+03
    6.15864075e+02 5.88488525e+02 5.68006531e+02 5.56115723e+02 5.49190063e+02 5.45725159e+02 5.43685486e+02 5.43434631e+02 5.41038147e+02 5.39826355e+02 5.37062439e+02 5.37681519e+02 0. 0. 0. 0. 0. 0. 0. 0. 0. 0. 0. 0. 0. 0. 0. 0. 0. 0. 0. 0. 0. 0. 0. 0. 0. 0. 0. 0. 0. 5.46719849e+02 5.49608154e+02 5.51677124e+02 5.55596802e+02 5.58840515e+02 5.66974915e+02 5.79108948e+02 6.06552856e+02 6.61274231e+02 6.91291992e+02 7.06530396e+02 7.18254150e+02 7.24061218e+02 7.28263123e+02 7.32231079e+02 7.33329407e+02 7.34883484e+02 7.35440247e+02 7.39695251e+02 7.46032471e+02 7.58515076e+02 7.70989136e+02 7.84352112e+02 8.03467224e+02 8.15064941e+02 8.28071960e+02 8.53074463e+02 8.76632751e+02 8.89746887e+02 8.92609375e+02 8.85396057e+02 8.68230835e+02 8.55615234e+02 8.67437988e+02 8.92736511e+02 9.14444641e+02 9.35505066e+02 9.48631836e+02 9.54128906e+02 9.56133972e+02 9.57393616e+02 9.57712830e+02 9.58446472e+02 9.58007324e+02 9.57692688e+02 9.56530151e+02 9.55702148e+02 9.54531677e+02 9.54585144e+02 9.54505737e+02 9.55514893e+02 9.55901978e+02 9.56267517e+02 9.57088623e+02 9.58746094e+02 9.60762268e+02 9.59417419e+02 9.57737671e+02 9.56498962e+02 9.57557434e+02 9.59973022e+02 9.60253296e+02 9.60074829e+02 9.57299133e+02 9.57906311e+02 9.57638062e+02 9.58778076e+02 9.57493835e+02 9.57734863e+02 9.57270325e+02 9.58058044e+02 9.58713074e+02 9.58946350e+02 9.60053955e+02 9.59889526e+02 9.59832581e+02 9.59235046e+02 9.58656616e+02 9.59761597e+02 9.60571167e+02 9.61223511e+02 9.61494995e+02 9.60321472e+02 9.59514893e+02 9.58895630e+02 9.60154541e+02 9.61697205e+02 9.60568604e+02 9.59784363e+02 9.59189270e+02 9.59678040e+02 9.60157166e+02 9.59676941e+02 9.60175781e+02 9.59449707e+02 9.59595032e+02 9.58693787e+02 9.58407532e+02 9.58156982e+02 9.56875977e+02 9.57217346e+02 9.58236206e+02 9.60556702e+02 9.58864197e+02 9.57794678e+02 9.57062317e+02 9.58596924e+02 9.58535583e+02 9.59384338e+02 9.60392029e+02 9.62328247e+02 9.61757996e+02 9.59592407e+02 9.57774719e+02 9.56297607e+02 9.57934265e+02 9.57535828e+02 9.59286865e+02 9.56085266e+02 9.57871155e+02 9.57532715e+02 9.58690308e+02 9.56776855e+02 9.54541321e+02 9.54385620e+02 9.53315002e+02 9.53929199e+02 0. 0. 1.78381482e+03 1.78132043e+03 1.78089746e+03 1.78207544e+03 1.78027991e+03 1.77976648e+03 1.77846375e+03 1.78234131e+03 1.78377344e+03 1.78542175e+03 1.78512439e+03 1.78354712e+03 1.78106323e+03 1.77833057e+03 1.77830347e+03 1.78132324e+03 1.78290198e+03 1.78085681e+03 1.77879590e+03 1.77930066e+03 1.78253918e+03 1.78135938e+03 1.78002209e+03 1.77809302e+03 1.77690015e+03 1.77720093e+03 1.77848291e+03 1.77964514e+03 1.78007434e+03 1.77771790e+03 1.77669421e+03 1.77595264e+03 1.77818835e+03 1.77889709e+03 1.77930408e+03 1.77938867e+03 1.77951746e+03 1.78038831e+03 1.77961353e+03 1.77867676e+03 1.77782678e+03 1.77680713e+03 1.77858020e+03 1.77862695e+03 1.77685205e+03 1.77405432e+03
    5.95452637e+02 5.76331970e+02 5.60953552e+02 5.50723206e+02 5.45225525e+02 5.41522278e+02 5.40475952e+02 5.39669800e+02 5.38743042e+02 5.37832153e+02 5.35787720e+02 5.36155151e+02 0. 0. 0. 0. 0. 0. 0. 0. 0. 0. 0. 0. 0. 0. 0. 0. 0. 0. 0. 0. 0. 0. 0. 0. 0. 0. 0. 0. 5.46756409e+02 5.46930847e+02 5.48828979e+02 5.49668701e+02 5.54149109e+02 5.58491028e+02 5.69729370e+02 5.83221130e+02 6.20759277e+02 6.81819458e+02 7.13442749e+02 7.35966614e+02 7.42223328e+02 7.46979553e+02 7.51591248e+02 7.53168152e+02 7.60160522e+02 7.64310852e+02 7.70218201e+02 7.77139648e+02 7.90663696e+02 8.13877747e+02 8.34958435e+02 8.52821899e+02 8.61099487e+02 8.67450317e+02 8.76381775e+02 8.81361877e+02 8.87667847e+02 8.87796326e+02 8.81727844e+02 8.63392639e+02 8.49908020e+02 8.60772522e+02 8.82507080e+02 9.00695068e+02 9.14671082e+02 9.32124695e+02 9.46946899e+02 9.52192383e+02 9.54646606e+02 9.54984314e+02 9.56071411e+02 9.56516296e+02 9.56150757e+02 9.55419189e+02 9.55486450e+02 9.55322754e+02 9.54728149e+02 9.54295227e+02 9.54790405e+02 9.55098206e+02 9.55024475e+02 9.54922974e+02 9.56129333e+02 9.57878662e+02 9.59226562e+02 9.58819702e+02 9.57795532e+02 9.56525208e+02 9.56578308e+02 9.58323120e+02 9.59475464e+02 9.59496460e+02 9.56713440e+02 9.55844727e+02 9.56276367e+02 9.58001526e+02 9.57481445e+02 9.56501404e+02 9.56212708e+02 9.58032410e+02 9.58198792e+02 9.58178528e+02 9.58595093e+02 9.58274597e+02 9.57960693e+02 9.57334473e+02 9.58240173e+02 9.58564636e+02 9.58424927e+02 9.58998108e+02 9.59964478e+02 9.59769348e+02 9.58527222e+02 9.57275513e+02 9.57579407e+02 9.59086182e+02 9.59157227e+02 9.59180969e+02 9.58902161e+02 9.57740417e+02 9.57485840e+02 9.57663940e+02 9.59148560e+02 9.59693604e+02 9.59110046e+02 9.57310669e+02 9.57086487e+02 9.56551208e+02 9.57049316e+02 9.55954407e+02 9.57874939e+02 9.60229248e+02 9.60681030e+02 9.57839417e+02 9.55382507e+02 9.54872559e+02 9.57797913e+02 9.59653931e+02 9.61182251e+02 9.61124390e+02 9.60380981e+02 9.56571045e+02 9.55681580e+02 9.55146851e+02 9.58915039e+02 9.58452393e+02 9.59020569e+02 9.56298401e+02 9.57637634e+02 9.57347778e+02 9.57522461e+02 9.55489014e+02 9.53480530e+02 9.53001648e+02 9.51654419e+02 9.53252502e+02 9.52002625e+02 0. 0. 1.77943079e+03 1.77953918e+03 1.78076538e+03 1.78029150e+03 1.78055603e+03 1.77894238e+03 1.77981702e+03 1.78022412e+03 1.78155115e+03 1.78121985e+03 1.77903271e+03 1.77751111e+03 1.77592163e+03 1.77746838e+03 1.78010156e+03 1.78131677e+03 1.77874146e+03 1.77642041e+03 1.77721106e+03 1.78041541e+03 1.77914246e+03 1.77759143e+03 1.77538977e+03 1.77632776e+03 1.77596350e+03 1.77637781e+03 1.77826270e+03 1.77937915e+03 1.77777661e+03 1.77576575e+03 1.77603979e+03 1.77750781e+03 1.77799878e+03 1.77893323e+03 1.77861133e+03 1.77771399e+03 1.77659326e+03 1.77628394e+03 1.77537244e+03 1.77518201e+03 1.77396594e+03 1.77580078e+03 1.77662573e+03 1.77787805e+03 1.77503052e+03
    5.84604004e+02 5.73200562e+02 5.61155212e+02 5.53256653e+02 5.47656128e+02 5.44627319e+02 5.43469971e+02 5.42328979e+02 5.40326721e+02 5.39656860e+02 0. 5.37626892e+02 0. 0. 0. 0. 0. 0. 0. 0. 0. 0. 0. 0. 0. 0. 0. 0. 0. 0. 0. 0. 0. 0. 0. 0. 0. 0. 0. 0. 0. 5.49208008e+02 5.50356750e+02 5.52927124e+02 5.56088623e+02 5.62892273e+02 5.73513733e+02 5.92621155e+02 6.39528931e+02 7.10900818e+02 7.53196960e+02 7.83820251e+02 8.07084900e+02 8.25500610e+02 8.32492432e+02 8.34867554e+02 8.35123108e+02 8.41198303e+02 8.49231079e+02 8.56532715e+02 8.61071289e+02 8.67479858e+02 8.74328064e+02 8.80868958e+02 8.87163879e+02 8.88952698e+02 8.90779297e+02 8.86859619e+02 8.83272888e+02 8.70725586e+02 8.55671387e+02 8.47449219e+02 8.60436584e+02 8.80871521e+02 8.93674927e+02 9.06439636e+02 9.16759888e+02 9.33281433e+02 9.47513245e+02 9.54276611e+02 9.57176025e+02 9.57821838e+02 9.58208008e+02 9.59005493e+02 9.58382080e+02 9.57706970e+02 9.57439270e+02 9.57485107e+02 9.56734741e+02 9.55867798e+02 9.56152649e+02 9.57215393e+02 9.57684387e+02 9.57955505e+02 9.58492493e+02 9.59036865e+02 9.60332458e+02 9.61023865e+02 9.60574341e+02 9.59503540e+02 9.58127258e+02 9.59414917e+02 9.60023682e+02 9.60883789e+02 9.58765808e+02 9.58038208e+02 9.58244019e+02 9.60580078e+02 9.60047119e+02 9.59091431e+02 9.58272217e+02 9.59950012e+02 9.59981689e+02 9.60542419e+02 9.60659058e+02 9.59989624e+02 9.59213867e+02 9.59151917e+02 9.59726318e+02 9.59233459e+02 9.58805725e+02 9.60729248e+02 9.61775146e+02 9.62339539e+02 9.60348694e+02 9.60352173e+02 9.59169983e+02 9.59439148e+02 9.58050537e+02 9.59798218e+02 9.60565674e+02 9.60197571e+02 9.58166809e+02 9.59105957e+02 9.60484680e+02 9.62168457e+02 9.60571228e+02 9.59150391e+02 9.59400574e+02 9.58182068e+02 9.58242615e+02 9.55906738e+02 9.58612000e+02 9.60058350e+02 9.61549622e+02 9.60449585e+02 9.58792786e+02 9.57263367e+02 9.57590332e+02 9.61219543e+02 9.62363892e+02 9.61733398e+02 9.58403625e+02 9.56279053e+02 9.55797852e+02 9.56591919e+02 9.58310120e+02 9.58746338e+02 9.59141663e+02 9.58681763e+02 9.58678345e+02 9.58927368e+02 9.59423340e+02 9.59138489e+02 9.56511841e+02 9.54822632e+02 9.51720642e+02 9.52738098e+02 9.47674500e+02 0. 0. 1.78108643e+03 1.78147766e+03 1.78189893e+03 1.78202454e+03 1.78158582e+03 1.78106873e+03 1.77996582e+03 1.78096155e+03 1.78286084e+03 1.78340942e+03 1.78124756e+03 1.77795325e+03 1.77729553e+03 1.77975049e+03 1.78224854e+03 1.78187207e+03 1.78027063e+03 1.77926990e+03 1.77956677e+03 1.78090100e+03 1.78087268e+03 1.77944165e+03 1.77833508e+03 1.77823596e+03 1.77827405e+03 1.77769360e+03 1.77840454e+03 1.77834082e+03 1.77698621e+03 1.77645691e+03 1.77766455e+03 1.77790247e+03 1.77757361e+03 1.77849243e+03 1.77947693e+03 1.77925293e+03 1.77705811e+03 1.77620764e+03 1.77562415e+03 1.77607336e+03 1.77577014e+03 1.77707129e+03 1.77905762e+03 1.78001807e+03 1.77860059e+03
    5.80382385e+02 5.64389648e+02 5.54024597e+02 5.48096802e+02 5.45399963e+02 5.42703491e+02 5.41968262e+02 5.40223083e+02 5.39187378e+02 5.37208984e+02 5.36317627e+02 0. 0. 0. 0. 0. 0. 0. 0. 0. 0. 0. 0. 0. 0. 0. 0. 0. 0. 0. 0. 0. 0. 0. 0. 0. 0. 0. 0. 0. 0. 5.46820374e+02 5.49067505e+02 5.52436584e+02 5.56524170e+02 5.64793030e+02 5.78002197e+02 6.04609802e+02 6.58400818e+02 7.14128418e+02 7.56841187e+02 7.92046631e+02 8.22041016e+02 8.37913086e+02 8.49462280e+02 8.56819397e+02 8.64628052e+02 8.69439575e+02 8.74779602e+02 8.77191833e+02 8.80723816e+02 8.82022156e+02 8.82924377e+02 8.87199951e+02 8.91289062e+02 8.90036682e+02 8.83549072e+02 8.69515930e+02 8.57255005e+02 8.44078735e+02 8.46576782e+02 8.61423828e+02 8.76135498e+02 8.86411865e+02 8.95516724e+02 9.07696472e+02 9.18475159e+02 9.34486572e+02 9.47774719e+02 9.54533081e+02 9.56775330e+02 9.56140015e+02 9.57007141e+02 9.56594238e+02 9.58460144e+02 9.57237549e+02 9.57652649e+02 9.56399963e+02 9.56360901e+02 9.56017578e+02 9.56319397e+02 9.56578918e+02 9.56681885e+02 9.56626038e+02 9.57330750e+02 9.57377136e+02 9.58061340e+02 9.58798218e+02 9.59953430e+02 9.58619385e+02 9.56280823e+02 9.55466003e+02 9.55615601e+02 9.57089966e+02 9.56682373e+02 9.56827881e+02 9.57071655e+02 9.58241760e+02 9.58486206e+02 9.56998596e+02 9.57263855e+02 9.59221863e+02 9.59174500e+02 9.58427063e+02 9.57329834e+02 9.57130127e+02 9.57643127e+02 9.56727722e+02 9.57297668e+02 9.55560303e+02 9.56739807e+02 9.57959106e+02 9.58897095e+02 9.57689392e+02 9.57411743e+02 9.58863464e+02 9.58804138e+02 9.57837402e+02 9.56565369e+02 9.59326477e+02 9.59821533e+02 9.59191528e+02 9.55826355e+02 9.55693115e+02 9.56709106e+02 9.58814636e+02 9.58041077e+02 9.57481384e+02 9.57485962e+02 9.56728699e+02 9.57074219e+02 9.55204956e+02 9.57203186e+02 9.57217590e+02 9.57702148e+02 9.57233459e+02 9.55757080e+02 9.55578491e+02 9.55416565e+02 9.59970032e+02 9.59926331e+02 9.58584900e+02 9.54722778e+02 9.54196960e+02 9.55973999e+02 9.56775696e+02 9.58676392e+02 9.57252380e+02 9.58076172e+02 9.56926514e+02 9.57382812e+02 9.57645569e+02 9.58668457e+02 9.59567139e+02 9.57817566e+02 9.55767212e+02 9.51154114e+02 9.50671265e+02 9.46277710e+02 0. 0. 1.78092065e+03 1.77928564e+03 1.77821533e+03 1.77834265e+03 1.77998083e+03 1.78082349e+03 1.77767456e+03 1.77820898e+03 1.77799780e+03 1.77931348e+03 1.77791003e+03 1.77596228e+03 1.77609546e+03 1.77745667e+03 1.77864380e+03 1.77916736e+03 1.77841626e+03 1.77761243e+03 1.77549695e+03 1.77622693e+03 1.77740112e+03 1.77895886e+03 1.77865283e+03 1.77915857e+03 1.77779480e+03 1.77841370e+03 1.77984998e+03 1.78007617e+03 1.77850977e+03 1.77653137e+03 1.77717725e+03 1.77718909e+03 1.77758850e+03 1.77779321e+03 1.77844324e+03 1.77841748e+03 1.77526062e+03 1.77421448e+03 1.77173071e+03 1.77485156e+03 1.77391248e+03 1.77686975e+03 1.77803809e+03 1.77960461e+03 1.77880103e+03
    5.80909363e+02 5.65606934e+02 5.55080688e+02 5.50475037e+02 5.47655518e+02 5.45923767e+02 5.44062073e+02 5.42801697e+02 5.41277832e+02 0. 0. 0. 0. 0. 0. 0. 0. 0. 0. 0. 0. 0. 0. 0. 0. 0. 0. 0. 0. 0. 0. 0. 0. 0. 0. 0. 0. 0. 0. 0. 5.47907776e+02 5.49771729e+02 5.51363892e+02 5.55598694e+02 5.60777344e+02 5.72475830e+02 5.89015991e+02 0. 6.83222656e+02 7.10711487e+02 7.36895325e+02 7.68254028e+02 8.00143921e+02 8.26181396e+02 8.42329590e+02 8.55086731e+02 8.66810486e+02 8.72501038e+02 8.76841492e+02 8.78665527e+02 8.80133057e+02 8.78732300e+02 8.77505127e+02 8.78822205e+02 8.79378540e+02 8.71376282e+02 8.54990234e+02 8.43636108e+02 8.43032227e+02 8.55604126e+02 8.69249756e+02 8.79286987e+02 8.85073669e+02 8.92115723e+02 9.00513184e+02 9.12893066e+02 9.22642029e+02 9.36010803e+02 9.48646851e+02 9.56380737e+02 9.58092712e+02 9.57821411e+02 9.58592346e+02 9.59611389e+02 9.61309143e+02 9.59930420e+02 9.58619934e+02 9.56944885e+02 9.57255005e+02 9.58534668e+02 9.58138733e+02 9.58241638e+02 9.57713440e+02 9.58004700e+02 9.58669861e+02 9.59025940e+02 9.59439514e+02 9.59834717e+02 9.60741882e+02 9.59942078e+02 9.57690125e+02 9.56086548e+02 9.56167603e+02 9.58043762e+02 9.59121704e+02 9.60548523e+02 9.61252502e+02 9.61798340e+02 9.61692383e+02 9.60229614e+02 9.60641357e+02 9.60943359e+02 9.60822510e+02 9.59464661e+02 9.59086060e+02 9.59031189e+02 9.60122314e+02 9.58849182e+02 9.59303711e+02 9.58105042e+02 9.60401733e+02 9.60909302e+02 9.60476746e+02 9.58256287e+02 9.58368713e+02 9.60094116e+02 9.60621948e+02 9.59541809e+02 9.58117004e+02 9.59635376e+02 9.59636353e+02 9.60706848e+02 9.58709534e+02 9.59538818e+02 9.59789001e+02 9.60170898e+02 9.58971130e+02 9.58227295e+02 9.58995422e+02 9.58309204e+02 9.58241333e+02 9.57049683e+02 9.58646729e+02 9.58517395e+02 9.57883911e+02 9.57270325e+02 9.56220581e+02 9.57821106e+02 9.57231079e+02 9.60822815e+02 9.61784058e+02 9.61097351e+02 9.58307922e+02 9.56842407e+02 9.57121399e+02 9.56439758e+02 9.57434021e+02 9.57192383e+02 9.57697144e+02 9.56720154e+02 9.57292053e+02 9.57289612e+02 9.57138550e+02 9.57910095e+02 9.58319336e+02 9.58482788e+02 9.55491455e+02 9.54490234e+02 9.49776489e+02 0. 0. 1.77971411e+03 1.77943237e+03 1.77966602e+03 1.77815564e+03 1.77966077e+03 1.77985437e+03 1.77849829e+03 1.77873291e+03 1.77853394e+03 1.78101245e+03 1.78060620e+03 1.77839978e+03 1.77728210e+03 1.77759583e+03 1.77961523e+03 1.78031958e+03 1.78020886e+03 1.77975110e+03 1.77618884e+03 1.77623071e+03 1.77678149e+03 1.77940527e+03 1.77955237e+03 1.78050024e+03 1.78101270e+03 1.78133911e+03 1.78101355e+03 1.77999524e+03 1.78013977e+03 1.77774585e+03 1.77877954e+03 1.77811743e+03 1.77918152e+03 1.77834607e+03 1.77908826e+03 1.78157935e+03 1.77902881e+03 1.77843713e+03 1.77485205e+03 1.77906787e+03 1.77888330e+03 1.78002930e+03 1.77900305e+03 1.77628528e+03 1.77685461e+03
    5.76812195e+02 5.59960327e+02 5.51120178e+02 5.45870544e+02 5.44705566e+02 5.43300964e+02 5.42168335e+02 5.40065918e+02 5.38867737e+02 5.37503662e+02 0. 0. 0. 0. 0. 0. 0. 0. 0. 0. 0. 0. 0. 0. 0. 0. 0. 0. 0. 0. 0. 0. 0. 0. 0. 0. 0. 0. 0. 0. 5.47461121e+02 5.48050415e+02 5.50030273e+02 5.53755859e+02 5.63174805e+02 5.79742737e+02 6.12150024e+02 0. 0. 7.35539856e+02 7.40639709e+02 7.48360352e+02 7.66794189e+02 7.87549561e+02 8.07050903e+02 8.19643127e+02 8.37039612e+02 8.47878296e+02 8.54484863e+02 8.53767395e+02 8.54651184e+02 8.49546631e+02 8.48486877e+02 8.50171082e+02 8.51469971e+02 8.47844177e+02 8.45849426e+02 8.49526672e+02 8.62112915e+02 8.72045044e+02 8.76972229e+02 8.81463684e+02 8.85980347e+02 8.92397522e+02 9.02041382e+02 9.15039490e+02 9.25673767e+02 9.36294556e+02 9.46990845e+02 9.53961548e+02 9.55073792e+02 9.54741943e+02 9.56608582e+02 9.58489136e+02 9.60747314e+02 9.58305420e+02 9.56904480e+02 9.54754639e+02 9.56703369e+02 9.58612976e+02 9.58706970e+02 9.57491333e+02 9.56243286e+02 9.55852234e+02 9.57056763e+02 9.57254761e+02 9.57779419e+02 9.57211548e+02 9.58786682e+02 9.57803589e+02 9.55878113e+02 9.54178101e+02 9.55385437e+02 9.57347900e+02 9.58645142e+02 9.59881409e+02 9.61205627e+02 9.61175720e+02 9.60634399e+02 9.58706543e+02 9.59197510e+02 9.59905334e+02 9.60006165e+02 9.57992004e+02 9.56898071e+02 9.56700623e+02 9.58558105e+02 9.57286743e+02 9.56771301e+02 9.55428467e+02 9.58030884e+02 9.58707825e+02 9.58618958e+02 9.55989136e+02 9.57317627e+02 9.57701538e+02 9.58615601e+02 9.58204468e+02 9.58685913e+02 9.59806946e+02 9.59112915e+02 9.59573303e+02 9.58563171e+02 9.58026733e+02 9.57875488e+02 9.57387512e+02 9.57065308e+02 9.56689392e+02 9.56792175e+02 9.56783508e+02 9.56291565e+02 9.57370056e+02 9.57794556e+02 9.57339294e+02 9.54874146e+02 9.54705505e+02 9.54289551e+02 9.55825073e+02 9.56384705e+02 9.58625549e+02 9.59747192e+02 9.58649780e+02 9.58242493e+02 9.56891174e+02 9.57436218e+02 9.55922302e+02 9.56876160e+02 9.55472290e+02 9.55275269e+02 9.54125610e+02 9.54782104e+02 9.54753845e+02 9.53579956e+02 9.55084656e+02 9.56183655e+02 9.57260376e+02 9.56057617e+02 9.55579224e+02 9.52693359e+02 0. 0. 1.77657861e+03 1.77631189e+03 1.77759436e+03 1.77720239e+03 1.77869727e+03 1.77690002e+03 1.77630164e+03 1.77764209e+03 1.77865576e+03 1.78017688e+03 1.77922571e+03 1.77847327e+03 1.77711133e+03 1.77657764e+03 1.77738171e+03 1.77872620e+03 1.77908655e+03 1.77914880e+03 1.77687549e+03 1.77558618e+03 1.77422791e+03 1.77541138e+03 1.77608545e+03 1.77755908e+03 1.77788342e+03 1.77695862e+03 1.77691992e+03 1.77699292e+03 1.77842371e+03 1.77542615e+03 1.77639880e+03 1.77675073e+03 1.77777234e+03 1.77578943e+03 1.77670459e+03 1.77887292e+03 1.77839502e+03 1.77738965e+03 1.77507837e+03 1.77722144e+03 1.77739795e+03 1.77930969e+03 1.77811865e+03 1.77393433e+03 1.77189514e+03
    5.76254822e+02 5.63034668e+02 5.53688049e+02 5.47931702e+02 5.45660522e+02 5.44936340e+02 5.43550842e+02 5.42118225e+02 5.40340210e+02 0. 0. 0. 0. 0. 0. 0. 0. 0. 0. 0. 0. 0. 0. 0. 0. 0. 0. 0. 0. 0. 0. 0. 0. 0. 0. 0. 0. 0. 0. 0. 5.50289856e+02 5.50669128e+02 5.52908813e+02 5.57293823e+02 5.69565552e+02 5.95459106e+02 0. 0. 0. 8.05854370e+02 7.98441772e+02 7.89099426e+02 7.90793762e+02 7.96406494e+02 8.02536560e+02 8.00849915e+02 8.05296326e+02 8.14712708e+02 8.22857361e+02 8.25186523e+02 8.25528870e+02 8.28639343e+02 8.35668945e+02 8.44593750e+02 8.55930786e+02 8.62734497e+02 8.67759949e+02 8.71717163e+02 8.75173401e+02 8.78397888e+02 8.79926208e+02 8.84217590e+02 8.89729248e+02 8.98634155e+02 9.08699768e+02 9.20207214e+02 9.29614990e+02 9.38216187e+02 9.48459229e+02 9.55421997e+02 9.56398682e+02 9.57155884e+02 9.57715942e+02 9.60756958e+02 9.61766052e+02 9.60849365e+02 9.58912842e+02 9.58250183e+02 9.59542664e+02 9.60873169e+02 9.59721130e+02 9.58450439e+02 9.57414917e+02 9.58304932e+02 9.59530579e+02 9.60329956e+02 9.59266846e+02 9.58752380e+02 9.59119141e+02 9.59157776e+02 9.57504578e+02 9.56311096e+02 9.56861023e+02 9.59056458e+02 9.61501648e+02 9.62662292e+02 9.63352356e+02 9.62539124e+02 9.61834351e+02 9.60636658e+02 9.60462280e+02 9.60571289e+02 9.60381348e+02 9.58905579e+02 9.58785767e+02 9.58797546e+02 9.60464722e+02 9.60016968e+02 9.59339111e+02 9.58790222e+02 9.61055725e+02 9.62073669e+02 9.61315125e+02 9.58791565e+02 9.58609863e+02 9.58163818e+02 9.58294495e+02 9.58966370e+02 9.59473022e+02 9.60037903e+02 9.59874451e+02 9.60663452e+02 9.61846619e+02 9.62034546e+02 9.62349670e+02 9.61072876e+02 9.59875854e+02 9.59337158e+02 9.59305542e+02 9.60037659e+02 9.58762512e+02 9.58527466e+02 9.58298401e+02 9.58781311e+02 9.57389160e+02 9.57283630e+02 9.57500488e+02 9.58177246e+02 9.59371399e+02 9.60141357e+02 9.61080750e+02 9.58990967e+02 9.59311096e+02 9.57988708e+02 9.56945068e+02 9.55813354e+02 9.56106689e+02 9.56373718e+02 9.54977356e+02 9.54809265e+02 9.54889587e+02 9.55811646e+02 9.53853699e+02 9.54197754e+02 9.55051086e+02 9.57095886e+02 9.59552979e+02 9.58946777e+02 9.54288452e+02 0. 0. 1.77806274e+03 1.77807996e+03 1.78050574e+03 1.78005884e+03 1.78021643e+03 1.77733948e+03 1.77852222e+03 1.78003296e+03 1.78199060e+03 1.78263660e+03 1.78101062e+03 1.78213306e+03 1.78105664e+03 1.78108057e+03 1.77980396e+03 1.77976294e+03 1.78039453e+03 1.77997925e+03 1.77978638e+03 1.77846423e+03 1.77738940e+03 1.77692249e+03 1.77740027e+03 1.77835510e+03 1.77857959e+03 1.77633325e+03 1.77651550e+03 1.77694116e+03 1.77922559e+03 1.77796216e+03 1.77886475e+03 1.77748572e+03 1.77777234e+03 1.77627478e+03 1.77899634e+03 1.77871619e+03 1.77682190e+03 1.77513306e+03 1.77517358e+03 1.77768115e+03 1.77881628e+03 1.77989722e+03 1.77926038e+03 1.77615564e+03 1.77385193e+03
    5.68875305e+02 5.56319885e+02 5.49799011e+02 5.45261719e+02 5.44240662e+02 5.42364624e+02 5.40944641e+02 5.38668823e+02 5.37202698e+02 0. 0. 0. 0. 0. 0. 0. 0. 0. 0. 0. 0. 0. 0. 0. 0. 0. 0. 0. 0. 0. 0. 0. 0. 0. 0. 0. 0. 0. 0. 5.46178162e+02 5.48634521e+02 5.49571777e+02 5.52742920e+02 5.58516052e+02 5.75097900e+02 6.16310974e+02 0. 8.08976746e+02 8.27504456e+02 8.37481689e+02 8.44836365e+02 8.47867188e+02 8.51274170e+02 8.50414673e+02 8.48034424e+02 8.43573914e+02 8.41234375e+02 8.44442139e+02 8.46942444e+02 8.49485291e+02 8.52349548e+02 8.53740540e+02 8.59602356e+02 8.62675720e+02 8.68492920e+02 8.68958252e+02 8.71488525e+02 8.73248779e+02 8.75645996e+02 8.78222351e+02 8.79824951e+02 8.84925110e+02 8.92203247e+02 9.02682495e+02 9.13106506e+02 9.22839600e+02 9.30960999e+02 9.36710754e+02 9.47536682e+02 9.54886353e+02 9.56608154e+02 9.57192932e+02 9.58116638e+02 9.60502136e+02 9.60908752e+02 9.58759460e+02 9.56778320e+02 9.56562988e+02 9.58655579e+02 9.58981750e+02 9.58641174e+02 9.56726868e+02 9.57281006e+02 9.57685425e+02 9.58858765e+02 9.58658142e+02 9.57318787e+02 9.56887390e+02 9.57172302e+02 9.57476746e+02 9.56387512e+02 9.56343262e+02 9.57351379e+02 9.58863586e+02 9.60027649e+02 9.59488037e+02 9.59891296e+02 9.59146973e+02 9.58436523e+02 9.57571228e+02 9.57336487e+02 9.58191406e+02 9.58690857e+02 9.57858215e+02 9.57782959e+02 9.56906372e+02 9.57714111e+02 9.57632751e+02 9.57060974e+02 9.56816956e+02 9.58246216e+02 9.59421387e+02 9.59455994e+02 9.57625427e+02 9.57811646e+02 9.57682068e+02 9.57441162e+02 9.57172913e+02 9.57787109e+02 9.58825562e+02 9.59869690e+02 9.59771423e+02 9.61509888e+02 9.60589661e+02 9.60091736e+02 9.58103699e+02 9.56817261e+02 9.57092224e+02 9.57049255e+02 9.58727844e+02 9.57730774e+02 9.57124390e+02 9.55819580e+02 9.55842712e+02 9.55527161e+02 9.56053589e+02 9.56705505e+02 9.56254883e+02 9.58260010e+02 9.58887512e+02 9.59707764e+02 9.56854065e+02 9.56541077e+02 9.55546814e+02 9.55257507e+02 9.54481445e+02 9.56123779e+02 9.55922913e+02 9.54726013e+02 9.54019348e+02 9.55566650e+02 9.56779480e+02 9.55596191e+02 9.54790161e+02 9.55941589e+02 9.56676270e+02 9.58487732e+02 9.56050659e+02 9.51680908e+02 0. 0. 1.77804431e+03 1.77691809e+03 1.77898486e+03 1.77897021e+03 1.77863794e+03 1.77587366e+03 1.77784009e+03 1.77886499e+03 1.78097998e+03 1.78118591e+03 1.78069397e+03 1.78151355e+03 1.78116980e+03 1.78054236e+03 1.77854126e+03 1.77788416e+03 1.77940320e+03 1.77943982e+03 1.78037573e+03 1.77885571e+03 1.77834937e+03 1.77640393e+03 1.77554626e+03 1.77467871e+03 1.77399854e+03 1.77392358e+03 1.77603345e+03 1.77704712e+03 1.77704126e+03 1.77602893e+03 1.77563025e+03 1.77539648e+03 1.77501013e+03 1.77605334e+03 1.77721448e+03 1.77665332e+03 1.77623657e+03 1.77473071e+03 1.77349438e+03 1.77268555e+03 1.77427222e+03 1.77648010e+03 1.77731360e+03 1.77647461e+03 1.77471118e+03
    5.67452698e+02 5.56443542e+02 5.49825562e+02 5.47141663e+02 5.45072021e+02 5.43581299e+02 5.41500916e+02 5.41333740e+02 0. 0. 0. 0. 0. 0. 0. 0. 0. 0. 0. 0. 0. 0. 0. 0. 0. 0. 0. 0. 0. 0. 0. 0. 0. 0. 0. 0. 0. 0. 5.46227539e+02 5.48338074e+02 5.50652649e+02 5.52861694e+02 5.56199402e+02 5.64455322e+02 5.85342285e+02 0. 0. 8.24292847e+02 8.37107239e+02 8.47794800e+02 8.57044312e+02 8.62067383e+02 8.67527771e+02 8.68954529e+02 8.70548462e+02 8.70806519e+02 8.71754700e+02 8.72866638e+02 8.71519104e+02 8.72030945e+02 8.71429016e+02 8.71507385e+02 8.71217468e+02 8.71389893e+02 8.72550598e+02 8.73247070e+02 8.74851807e+02 8.76491699e+02 8.78005188e+02 8.81589111e+02 8.84785339e+02 8.91515564e+02 8.99458923e+02 9.10485168e+02 9.20018677e+02 9.27763306e+02 9.33151489e+02 9.35893860e+02 9.47153503e+02 9.57252808e+02 9.60010010e+02 9.60521179e+02 9.59377563e+02 9.60593140e+02 9.61475098e+02 9.60902527e+02 9.59859985e+02 9.59424072e+02 9.59789978e+02 9.59777588e+02 9.59377197e+02 9.58733948e+02 9.59318054e+02 9.60233887e+02 9.60887024e+02 9.60890198e+02 9.59502075e+02 9.59891846e+02 9.59322815e+02 9.59829529e+02 9.58352539e+02 9.58983459e+02 9.59051880e+02 9.60797241e+02 9.61493774e+02 9.61118408e+02 9.60607605e+02 9.59606445e+02 9.58336182e+02 9.58505066e+02 9.59101685e+02 9.61062805e+02 9.61435608e+02 9.60854065e+02 9.60385681e+02 9.59559753e+02 9.59366699e+02 9.58916687e+02 9.58702148e+02 9.58841553e+02 9.60322693e+02 9.61216980e+02 9.61357239e+02 9.60537537e+02 9.60339417e+02 9.60868286e+02 9.60171570e+02 9.59653198e+02 9.59756287e+02 9.59828247e+02 9.60477234e+02 9.60954956e+02 9.62700867e+02 9.62331360e+02 9.61119873e+02 9.60128540e+02 9.59342651e+02 9.59784912e+02 9.59503479e+02 9.60798645e+02 9.60123291e+02 9.59798340e+02 9.58570251e+02 9.59367310e+02 9.60736267e+02 9.60247803e+02 9.59994263e+02 9.58381958e+02 9.59986877e+02 9.59314148e+02 9.60571228e+02 9.59501099e+02 9.59651001e+02 9.57987976e+02 9.56745667e+02 9.55978577e+02 9.58532776e+02 9.59564758e+02 9.58975647e+02 9.56804504e+02 9.58361267e+02 9.59810303e+02 9.59707336e+02 9.57976440e+02 9.58726074e+02 9.58174622e+02 9.58154724e+02 9.54959412e+02 9.52595032e+02 0. 0. 1.78270667e+03 1.78150378e+03 1.78132227e+03 1.78011987e+03 1.78098889e+03 1.77991663e+03 1.78125842e+03 1.77957520e+03 1.78069470e+03 1.78187537e+03 1.78171411e+03 1.78367383e+03 1.78212756e+03 1.78131580e+03 1.77878491e+03 1.77831775e+03 1.78002625e+03 1.77880896e+03 1.77925720e+03 1.77804248e+03 1.77897083e+03 1.77752197e+03 1.77731995e+03 1.77747375e+03 1.77887219e+03 1.78046143e+03 1.78181030e+03 1.78016943e+03 1.77825024e+03 1.77838623e+03 1.77853137e+03 1.77886365e+03 1.77830066e+03 1.77981213e+03 1.78033850e+03 1.77987805e+03 1.77815417e+03 1.77633496e+03 1.77330981e+03 1.77349817e+03 1.77395508e+03 1.77597729e+03 1.77531372e+03 1.77705701e+03 1.77762549e+03
    5.61235046e+02 5.51113770e+02 5.46147278e+02 5.44033447e+02 5.43028931e+02 5.41385376e+02 5.39848877e+02 0. 0. 0. 0. 0. 0. 0. 0. 0. 0. 0. 0. 0. 0. 0. 0. 0. 0. 0. 0. 0. 0. 0. 0. 0. 0. 0. 0. 0. 0. 0. 0. 5.46165588e+02 5.48699768e+02 5.51403992e+02 5.56030334e+02 5.67533508e+02 5.94172852e+02 0. 0. 8.33483276e+02 8.41318298e+02 8.50810181e+02 8.58858521e+02 8.63575439e+02 8.68257324e+02 8.71427734e+02 8.72890564e+02 8.72514160e+02 8.72673035e+02 8.73858337e+02 8.71796570e+02 8.71622131e+02 8.70455261e+02 8.71374390e+02 8.71431030e+02 8.71475830e+02 8.71980469e+02 8.72362183e+02 8.74139893e+02 8.76400330e+02 8.79202515e+02 8.83396606e+02 8.88256470e+02 8.94261475e+02 9.02647156e+02 9.12143311e+02 9.21352478e+02 9.28436523e+02 9.33060486e+02 9.34399109e+02 9.45263367e+02 9.55688232e+02 9.58668457e+02 9.58600525e+02 9.58262817e+02 9.58655334e+02 9.59386841e+02 9.58331116e+02 9.58024719e+02 9.57471069e+02 9.57742310e+02 9.57639893e+02 9.57830872e+02 9.57950317e+02 9.58062622e+02 9.58246094e+02 9.57858459e+02 9.58014404e+02 9.57681030e+02 9.56981934e+02 9.56962646e+02 9.57355713e+02 9.57805054e+02 9.59128113e+02 9.59911743e+02 9.60739563e+02 9.59480469e+02 9.58526855e+02 9.59177124e+02 9.60100952e+02 9.58525330e+02 9.57540710e+02 9.57429993e+02 9.59070740e+02 9.59590088e+02 9.59306213e+02 9.59238525e+02 9.57635376e+02 9.56986938e+02 9.56457214e+02 9.57516602e+02 9.57323364e+02 9.58397400e+02 9.58139587e+02 9.59403259e+02 9.59061279e+02 9.59971375e+02 9.60689148e+02 9.60400513e+02 9.59543030e+02 9.59224426e+02 9.59728699e+02 9.59771912e+02 9.60006042e+02 9.59580933e+02 9.58112244e+02 9.56440979e+02 9.56182129e+02 9.57576355e+02 9.57954346e+02 9.57991333e+02 9.57850830e+02 9.58072021e+02 9.58167847e+02 9.58651123e+02 9.58742188e+02 9.60402100e+02 9.58634644e+02 9.57753662e+02 9.55772583e+02 9.57307434e+02 9.57150696e+02 9.58766846e+02 9.59810547e+02 9.60442322e+02 9.58855042e+02 9.56516663e+02 9.55493103e+02 9.56482666e+02 9.57847046e+02 9.58261353e+02 9.55607239e+02 9.57170593e+02 9.57456970e+02 9.60051758e+02 9.58819336e+02 9.59988770e+02 9.56678284e+02 9.54677734e+02 9.52070374e+02 9.50896484e+02 0. 0. 1.78091016e+03 1.77976538e+03 1.77843799e+03 1.77809692e+03 1.77927112e+03 1.77902747e+03 1.77812878e+03 1.77586536e+03 1.77754492e+03 1.77866492e+03 1.77948889e+03 1.77987329e+03 1.77990356e+03 1.77892981e+03 1.77688379e+03 1.77657776e+03 1.77737610e+03 1.77833826e+03 1.77802966e+03 1.77699438e+03 1.77656812e+03 1.77539697e+03 1.77436035e+03 1.77491724e+03 1.77752942e+03 1.77892419e+03 1.77901965e+03 1.77698804e+03 1.77595447e+03 1.77510315e+03 1.77398901e+03 1.77521558e+03 1.77596033e+03 1.77804346e+03 1.77656567e+03 1.77626599e+03 1.77611780e+03 1.77450806e+03 1.77159265e+03 1.77057764e+03 1.77215540e+03 1.77255493e+03 1.77134277e+03 1.77190564e+03 1.77421570e+03
    5.62543518e+02 5.54130737e+02 5.47987610e+02 5.45849609e+02 5.44235168e+02 5.43273926e+02 5.42107483e+02 0. 0. 0. 0. 0. 0. 0. 0. 0. 0. 0. 0. 0. 0. 0. 0. 0. 0. 0. 0. 0. 0. 0. 0. 0. 0. 0. 0. 0. 0. 0. 0. 0. 5.51384155e+02 5.54312317e+02 5.59559204e+02 5.74346863e+02 6.08035645e+02 0. 8.26814392e+02 8.45113892e+02 8.51618042e+02 8.59355896e+02 8.64807251e+02 8.68286865e+02 8.70875061e+02 8.73935547e+02 8.74598633e+02 8.74550476e+02 8.73708801e+02 8.74599487e+02 8.74701660e+02 8.75217285e+02 8.74008972e+02 8.73525940e+02 8.74203979e+02 8.75333984e+02 8.76132629e+02 8.77297607e+02 8.80750366e+02 8.83729309e+02 8.86602356e+02 8.90338379e+02 8.95806702e+02 9.01691528e+02 9.08433716e+02 9.15671875e+02 9.22692200e+02 9.29516846e+02 9.33814880e+02 9.36524231e+02 9.45363464e+02 9.55549255e+02 9.59239136e+02 9.59464661e+02 9.58883667e+02 9.58935669e+02 9.59780334e+02 9.59174622e+02 9.59440308e+02 9.59993958e+02 9.60330261e+02 9.60444641e+02 9.59969116e+02 9.61522888e+02 9.60298584e+02 9.60649048e+02 9.59677979e+02 9.60529114e+02 9.60267212e+02 9.59405457e+02 9.59748474e+02 9.60215088e+02 9.60674438e+02 9.61215210e+02 9.60794495e+02 9.61084473e+02 9.60194336e+02 9.60339905e+02 9.61616699e+02 9.62802185e+02 9.61586609e+02 9.60358948e+02 9.59436218e+02 9.60444885e+02 9.60796021e+02 9.60302063e+02 9.60280396e+02 9.59522156e+02 9.60068420e+02 9.59991943e+02 9.60437439e+02 9.59872437e+02 9.60367310e+02 9.60477783e+02 9.61170349e+02 9.61475830e+02 9.61597839e+02 9.62398621e+02 9.61225403e+02 9.61761230e+02 9.60784119e+02 9.61688416e+02 9.60875366e+02 9.61058594e+02 9.59418518e+02 9.57927429e+02 9.57415771e+02 9.58498840e+02 9.60778931e+02 9.60865601e+02 9.59614258e+02 9.58307983e+02 9.58135254e+02 9.58755310e+02 9.61103455e+02 9.61111267e+02 9.62832153e+02 9.59319580e+02 9.58751770e+02 9.57573669e+02 9.59358154e+02 9.59149231e+02 9.59101685e+02 9.61174011e+02 9.61452942e+02 9.60920227e+02 9.58307068e+02 9.59151367e+02 9.58355530e+02 9.60033020e+02 9.59216492e+02 9.57936096e+02 9.57042297e+02 9.56510803e+02 9.58485291e+02 9.57053833e+02 9.57853210e+02 9.54687195e+02 9.54350586e+02 9.53612122e+02 9.52360107e+02 0. 0. 1.78301392e+03 1.78084094e+03 1.77983899e+03 1.77841528e+03 1.78097070e+03 1.78128577e+03 1.78085571e+03 1.77868945e+03 1.77937573e+03 1.77952454e+03 1.77928467e+03 1.78040649e+03 1.78073669e+03 1.78074939e+03 1.77805176e+03 1.77889172e+03 1.77966833e+03 1.78065356e+03 1.77878064e+03 1.77573474e+03 1.77480750e+03 1.77436206e+03 1.77520044e+03 1.77704236e+03 1.77930420e+03 1.77940381e+03 1.77722974e+03 1.77577686e+03 1.77514026e+03 1.77632166e+03 1.77648828e+03 1.77848169e+03 1.77993079e+03 1.78062341e+03 1.77967712e+03 1.77770007e+03 1.77732227e+03 1.77572791e+03 1.77536890e+03 1.77476404e+03 1.77636951e+03 1.77548389e+03 1.77348083e+03 1.77202344e+03 1.77404248e+03
    5.57532288e+02 5.49781860e+02 5.44089783e+02 5.42778687e+02 5.42290100e+02 5.41072388e+02 5.39372742e+02 5.37618958e+02 0. 0. 0. 0. 0. 0. 0. 0. 0. 0. 0. 0. 0. 0. 0. 0. 0. 0. 0. 0. 0. 0. 0. 0. 0. 0. 0. 0. 0. 0. 0. 5.48809509e+02 5.51212585e+02 5.54340027e+02 5.61688965e+02 5.79695068e+02 0. 0. 8.40381958e+02 8.51917175e+02 8.57170715e+02 8.62927490e+02 8.68123291e+02 8.70390686e+02 8.71454895e+02 8.73242493e+02 8.74274841e+02 8.74568481e+02 8.74140503e+02 8.74783142e+02 8.76028748e+02 8.76209534e+02 8.75471985e+02 8.75014282e+02 8.76857300e+02 8.78126160e+02 8.79547485e+02 8.79937561e+02 8.83584167e+02 8.86112732e+02 8.89962280e+02 8.93462891e+02 8.98946045e+02 9.03557434e+02 9.09566528e+02 9.15200256e+02 9.22211731e+02 9.28593933e+02 9.32177063e+02 9.35145813e+02 9.44429138e+02 9.53096985e+02 9.56962952e+02 9.57151489e+02 9.57788452e+02 9.57611023e+02 9.57992676e+02 9.56949585e+02 9.57003418e+02 9.57679382e+02 9.59116211e+02 9.59403320e+02 9.59984192e+02 9.60680237e+02 9.59512451e+02 9.59208069e+02 9.58180908e+02 9.59248596e+02 9.59136719e+02 9.57905029e+02 9.58483582e+02 9.58613770e+02 9.59749146e+02 9.60482849e+02 9.60886475e+02 9.59659668e+02 9.58942261e+02 9.58507507e+02 9.60866760e+02 9.60588379e+02 9.60998962e+02 9.58876038e+02 9.58078857e+02 9.56866821e+02 9.57805176e+02 9.57224365e+02 9.58325745e+02 9.58227173e+02 9.59042725e+02 9.58542664e+02 9.59541626e+02 9.59918701e+02 9.60159912e+02 9.58806763e+02 9.59574219e+02 9.60002563e+02 9.60740967e+02 9.60949524e+02 9.59635681e+02 9.59500549e+02 9.57645264e+02 9.58719238e+02 9.58965271e+02 9.59132202e+02 9.58606567e+02 9.57182129e+02 9.56889099e+02 9.55794189e+02 9.57251404e+02 9.57440918e+02 9.58096313e+02 9.57408508e+02 9.56816650e+02 9.55554932e+02 9.57781128e+02 9.58374207e+02 9.60104980e+02 9.55877869e+02 9.55540527e+02 9.55331482e+02 9.57499573e+02 9.57530090e+02 9.58716187e+02 9.59679321e+02 9.59252014e+02 9.57706604e+02 9.55994995e+02 9.57935913e+02 9.56833069e+02 9.57683716e+02 9.55741882e+02 9.54713562e+02 9.54282959e+02 9.52102905e+02 9.53288818e+02 9.51823608e+02 9.54183350e+02 9.52641296e+02 9.54018250e+02 9.53425598e+02 9.52712646e+02 0. 0. 1.78136804e+03 1.77945581e+03 1.77962524e+03 1.77870288e+03 1.77969531e+03 1.77962524e+03 1.77844653e+03 1.77792810e+03 1.77747571e+03 1.77799292e+03 1.77665137e+03 1.77702930e+03 1.77771802e+03 1.77911731e+03 1.77854907e+03 1.77923364e+03 1.77929456e+03 1.77965662e+03 1.77710657e+03 1.77483386e+03 1.77341809e+03 1.77344714e+03 1.77376685e+03 1.77527197e+03 1.77579504e+03 1.77454443e+03 1.77267249e+03 1.77306885e+03 1.77395752e+03 1.77498486e+03 1.77353955e+03 1.77425793e+03 1.77469214e+03 1.77555225e+03 1.77483875e+03 1.77392456e+03 1.77467993e+03 1.77448352e+03 1.77514685e+03 1.77373096e+03 1.77635547e+03 1.77495068e+03 1.77486121e+03 1.77215723e+03 1.77269690e+03
    5.57214233e+02 5.50922058e+02 5.45372559e+02 5.44548889e+02 5.42346802e+02 5.41133972e+02 5.38903625e+02 5.38416016e+02 0. 0. 0. 0. 0. 0. 0. 0. 0. 0. 0. 0. 0. 0. 0. 0. 0. 0. 0. 0. 0. 0. 0. 0. 0. 0. 0. 0. 0. 0. 5.49467346e+02 5.52814331e+02 5.54531677e+02 5.58650146e+02 5.67632324e+02 5.90728027e+02 0. 0. 8.52712280e+02 8.59981995e+02 8.65281372e+02 8.69912903e+02 8.73976135e+02 8.75174011e+02 8.75651184e+02 8.77151123e+02 8.79141846e+02 8.80079102e+02 8.79258728e+02 8.79635437e+02 8.82034851e+02 8.82597534e+02 8.82268494e+02 8.81824707e+02 8.83947266e+02 8.85363892e+02 8.86079041e+02 8.86288208e+02 8.89203491e+02 8.91849365e+02 8.95355042e+02 8.99709351e+02 9.05020752e+02 9.10687378e+02 9.14261475e+02 9.19123535e+02 9.25360718e+02 9.32475525e+02 9.35108276e+02 9.37393982e+02 9.45408691e+02 9.54319214e+02 9.58791565e+02 9.59066467e+02 9.58767456e+02 9.58994263e+02 9.59375427e+02 9.59234009e+02 9.59343811e+02 9.60015137e+02 9.60827759e+02 9.60987488e+02 9.61894287e+02 9.62297974e+02 9.62012329e+02 9.61931152e+02 9.61816772e+02 9.62008423e+02 9.61645813e+02 9.60944397e+02 9.61244324e+02 9.61603760e+02 9.61750732e+02 9.62331726e+02 9.62792725e+02 9.62326721e+02 9.61909363e+02 9.61413574e+02 9.62477722e+02 9.61181274e+02 9.61752380e+02 9.60895264e+02 9.60684021e+02 9.59725403e+02 9.60485962e+02 9.59891663e+02 9.60051270e+02 9.60498657e+02 9.61937866e+02 9.61395264e+02 9.60879028e+02 9.61186646e+02 9.61518494e+02 9.61154480e+02 9.61469238e+02 9.62749084e+02 9.62828674e+02 9.62889587e+02 9.61645447e+02 9.62209229e+02 9.60437317e+02 9.59482666e+02 9.58363403e+02 9.58390625e+02 9.59115295e+02 9.59088074e+02 9.59401978e+02 9.58539001e+02 9.58949890e+02 9.59999207e+02 9.61001953e+02 9.60475708e+02 9.58645447e+02 9.56923767e+02 9.58422302e+02 9.59989258e+02 9.60540955e+02 9.57485413e+02 9.57408386e+02 9.58617065e+02 9.60628174e+02 9.60475952e+02 9.60890137e+02 9.60968811e+02 9.59339905e+02 9.57495422e+02 9.56490723e+02 9.58270752e+02 9.58479248e+02 9.58465881e+02 9.57369141e+02 9.56899841e+02 9.56309692e+02 9.53903381e+02 9.52306091e+02 9.50876221e+02 9.53624023e+02 9.54908997e+02 9.55127014e+02 9.54037292e+02 9.53274963e+02 0. 0. 1.78376611e+03 1.78172314e+03 1.78223962e+03 1.78079443e+03 1.78239307e+03 1.78232153e+03 1.78124084e+03 1.78015771e+03 1.77861536e+03 1.77875977e+03 1.77716174e+03 1.77688623e+03 1.77652454e+03 1.77831360e+03 1.77958887e+03 1.78157458e+03 1.78121802e+03 1.77894678e+03 1.77611633e+03 1.77455811e+03 1.77483923e+03 1.77430774e+03 1.77561426e+03 1.77585388e+03 1.77575415e+03 1.77399097e+03 1.77385376e+03 1.77578931e+03 1.77595496e+03 1.77689343e+03 1.77608777e+03 1.77641614e+03 1.77583826e+03 1.77558142e+03 1.77704712e+03 1.77787085e+03 1.77866138e+03 1.77743103e+03 1.77790930e+03 1.77567310e+03 1.77769763e+03 1.77791565e+03 1.77943262e+03 1.77800940e+03 1.77769092e+03
    5.52265686e+02 5.47091736e+02 5.43666504e+02 5.42288696e+02 5.40102478e+02 5.38111633e+02 5.36004944e+02 0. 0. 0. 0. 0. 0. 0. 0. 0. 0. 0. 0. 0. 0. 0. 0. 0. 0. 0. 0. 0. 0. 0. 0. 0. 0. 0. 0. 0. 0. 5.46332764e+02 5.49333496e+02 5.51831604e+02 5.54485168e+02 5.58977173e+02 5.71371277e+02 5.99068970e+02 0. 0. 8.59971741e+02 8.64309570e+02 8.69089294e+02 8.72223938e+02 8.76040649e+02 8.76260376e+02 8.77017761e+02 8.78144714e+02 8.80590576e+02 8.80301025e+02 8.80206055e+02 8.80370605e+02 8.82795288e+02 8.83148865e+02 8.83729980e+02 8.84393127e+02 8.85975586e+02 8.86903320e+02 8.87771973e+02 8.88794373e+02 8.90926941e+02 8.94172119e+02 8.97624207e+02 9.01425720e+02 9.05800110e+02 9.09716492e+02 9.13779236e+02 9.18438538e+02 9.26892517e+02 9.34418274e+02 9.35289307e+02 9.36043457e+02 9.44113770e+02 9.53568665e+02 9.56489014e+02 9.55821655e+02 9.55903687e+02 9.57247925e+02 9.58154053e+02 9.58991821e+02 9.58357178e+02 9.58312134e+02 9.58023804e+02 9.58529419e+02 9.59132507e+02 9.58383362e+02 9.59486084e+02 9.61192627e+02 9.61526611e+02 9.60793518e+02 9.58540833e+02 9.58786682e+02 9.59291809e+02 9.60652588e+02 9.60440552e+02 9.60133972e+02 9.60416077e+02 9.60044312e+02 9.60369812e+02 9.60078247e+02 9.60377991e+02 9.58669861e+02 9.58923462e+02 9.59731628e+02 9.60822998e+02 9.60046509e+02 9.60222961e+02 9.59467529e+02 9.59663086e+02 9.58761414e+02 9.59494995e+02 9.58110046e+02 9.58540100e+02 9.59490540e+02 9.60132446e+02 9.58754333e+02 9.58184509e+02 9.59305420e+02 9.60422363e+02 9.60444092e+02 9.60156433e+02 9.60326416e+02 9.58960083e+02 9.57659973e+02 9.56246826e+02 9.56586304e+02 9.57660522e+02 9.58509338e+02 9.59101318e+02 9.57416931e+02 9.58198608e+02 9.58421448e+02 9.60269775e+02 9.58477295e+02 9.57671814e+02 9.56150635e+02 9.57286621e+02 9.58324829e+02 9.58777832e+02 9.57180176e+02 9.56336121e+02 9.57674133e+02 9.59389099e+02 9.59528564e+02 9.60046753e+02 9.59815674e+02 9.59166931e+02 9.57403198e+02 9.55660339e+02 9.55857300e+02 9.56125793e+02 9.56416992e+02 9.55015991e+02 9.53838806e+02 9.53994202e+02 9.52897888e+02 9.50896362e+02 9.49760315e+02 9.52965820e+02 9.55014160e+02 9.53485535e+02 9.51557495e+02 9.51357117e+02 0. 0. 1.78039648e+03 1.77985669e+03 1.78122473e+03 1.78117004e+03 1.78064331e+03 1.78058679e+03 1.77868982e+03 1.77914246e+03 1.77694690e+03 1.77755505e+03 1.77464795e+03 1.77480066e+03 1.77380005e+03 1.77549890e+03 1.77555017e+03 1.77694019e+03 1.77679443e+03 1.77533459e+03 1.77363171e+03 1.77443274e+03 1.77550269e+03 1.77453271e+03 1.77389587e+03 1.77370007e+03 1.77477771e+03 1.77409082e+03 1.77459570e+03 1.77620618e+03 1.77619324e+03 1.77679199e+03 1.77528284e+03 1.77500330e+03 1.77405347e+03 1.77294238e+03 1.77402649e+03 1.77443176e+03 1.77543420e+03 1.77336670e+03 1.77357129e+03 1.77254236e+03 1.77535718e+03 1.77548572e+03 1.77717090e+03 1.77677051e+03 1.77641821e+03
    5.53918762e+02 5.50048950e+02 5.47489258e+02 5.45610413e+02 5.42179810e+02 5.40354431e+02 0. 0. 0. 0. 0. 0. 0. 0. 0. 0. 0. 0. 0. 0. 0. 0. 0. 0. 0. 0. 0. 0. 0. 0. 0. 0. 0. 0. 0. 0. 0. 5.47440369e+02 5.50153625e+02 5.54637512e+02 5.56830017e+02 5.62956238e+02 5.77178528e+02 6.13674438e+02 0. 8.51121826e+02 8.68260620e+02 8.72420593e+02 8.77409912e+02 8.79824646e+02 8.81697021e+02 8.81483948e+02 8.82104614e+02 8.83815613e+02 8.86531677e+02 8.86635132e+02 8.85887024e+02 8.85456238e+02 8.87424988e+02 8.87806030e+02 8.87868652e+02 8.88348938e+02 8.89046448e+02 8.90913818e+02 8.92319824e+02 8.95061279e+02 8.96526611e+02 8.99822815e+02 9.02215759e+02 9.06254028e+02 9.09472046e+02 9.13478821e+02 9.17141296e+02 9.23203613e+02 9.30553345e+02 9.37154175e+02 9.37465942e+02 9.39649841e+02 9.46441406e+02 9.56198120e+02 9.58439087e+02 9.57305054e+02 9.57501282e+02 9.58397949e+02 9.59488831e+02 9.59263733e+02 9.59652954e+02 9.60634949e+02 9.61057068e+02 9.61695251e+02 9.60993042e+02 9.60778564e+02 9.61327637e+02 9.63868835e+02 9.63945557e+02 9.63798828e+02 9.61612244e+02 9.62760925e+02 9.61872131e+02 9.62163513e+02 9.60822571e+02 9.61195679e+02 9.61700317e+02 9.62137817e+02 9.61072266e+02 9.60380005e+02 9.60373840e+02 9.61185059e+02 9.61184692e+02 9.61840576e+02 9.61805908e+02 9.62569031e+02 9.63007446e+02 9.63295410e+02 9.62147888e+02 9.60393311e+02 9.60433289e+02 9.60801025e+02 9.61009033e+02 9.61325623e+02 9.61752136e+02 9.61164734e+02 9.60090576e+02 9.60212585e+02 9.60780579e+02 9.61081116e+02 9.61367859e+02 9.62592407e+02 9.61457397e+02 9.60493164e+02 9.58575562e+02 9.59705566e+02 9.59334351e+02 9.60420532e+02 9.62056091e+02 9.61943176e+02 9.61902649e+02 9.59994812e+02 9.60905518e+02 9.58669373e+02 9.58805969e+02 9.57751465e+02 9.59418762e+02 9.60023315e+02 9.60100769e+02 9.58833801e+02 9.56899597e+02 9.58283447e+02 9.59836304e+02 9.60758484e+02 9.59647766e+02 9.59843872e+02 9.59595764e+02 9.59684265e+02 9.58292175e+02 9.58283997e+02 9.58717407e+02 9.59820129e+02 9.58490479e+02 9.58578247e+02 9.57333130e+02 9.57372070e+02 9.53689880e+02 9.53602600e+02 9.54663513e+02 9.56805420e+02 9.54223083e+02 9.53579163e+02 9.53265686e+02 0. 0. 1.78052002e+03 1.77892993e+03 1.77997742e+03 1.78017822e+03 1.77878882e+03 1.77895300e+03 1.77783240e+03 1.77907739e+03 1.77919800e+03 1.77913953e+03 1.77791602e+03 1.77660510e+03 1.77710681e+03 1.77700989e+03 1.77679370e+03 1.77748621e+03 1.77825085e+03 1.77749219e+03 1.77663538e+03 1.77765564e+03 1.77821765e+03 1.77645312e+03 1.77467126e+03 1.77455078e+03 1.77573474e+03 1.77515576e+03 1.77581030e+03 1.77609045e+03 1.77621692e+03 1.77678516e+03 1.77782397e+03 1.77871338e+03 1.77799817e+03 1.77597144e+03 1.77722290e+03 1.77724976e+03 1.77873462e+03 1.77627429e+03 1.77660522e+03 1.77574072e+03 1.77794141e+03 1.77864185e+03 1.77799402e+03 1.77732520e+03 1.77708789e+03
    5.49028564e+02 5.46337891e+02 5.45545715e+02 5.43615417e+02 5.41290955e+02 5.39171631e+02 0. 0. 0. 0. 0. 0. 0. 0. 0. 0. 0. 0. 0. 0. 0. 0. 0. 0. 0. 0. 0. 0. 0. 0. 0. 0. 0. 0. 0. 0. 0. 0. 5.49060486e+02 5.52004883e+02 5.55932556e+02 5.62900330e+02 5.81660706e+02 0. 0. 8.61559937e+02 8.72435303e+02 8.75964355e+02 8.80731079e+02 8.82477966e+02 8.85172729e+02 8.84893738e+02 8.86621399e+02 8.86804871e+02 8.88883179e+02 8.87884338e+02 8.88180481e+02 8.86687439e+02 8.88265503e+02 8.87738953e+02 8.89056458e+02 8.88850220e+02 8.89846680e+02 8.91058411e+02 8.93664246e+02 8.96500061e+02 8.98591003e+02 9.01378723e+02 9.03430542e+02 9.05729614e+02 9.07450073e+02 9.10634216e+02 9.17227417e+02 9.25214294e+02 9.31790100e+02 9.36679260e+02 9.36866821e+02 9.38404785e+02 9.44025330e+02 9.53019958e+02 9.56182190e+02 9.55204224e+02 9.55686768e+02 9.55887817e+02 9.57809753e+02 9.56813416e+02 9.56972778e+02 9.57311584e+02 9.58075012e+02 9.59833984e+02 9.59701355e+02 9.59590820e+02 9.59059265e+02 9.61032349e+02 9.60523865e+02 9.60906128e+02 9.59137634e+02 9.61877502e+02 9.61096741e+02 9.60933167e+02 9.59365417e+02 9.59434753e+02 9.60034912e+02 9.59905396e+02 9.60118713e+02 9.60102051e+02 9.60044678e+02 9.59687073e+02 9.59181335e+02 9.59592102e+02 9.59874084e+02 9.61093384e+02 9.61004822e+02 9.61170410e+02 9.60340210e+02 9.59012146e+02 9.59218750e+02 9.59403320e+02 9.59918396e+02 9.59600037e+02 9.59809204e+02 9.59122437e+02 9.59027283e+02 9.58423584e+02 9.59201233e+02 9.58952271e+02 9.60188721e+02 9.60561340e+02 9.59971497e+02 9.59709473e+02 9.59281250e+02 9.60297852e+02 9.59368774e+02 9.60180603e+02 9.61965637e+02 9.61132446e+02 9.60340454e+02 9.57180969e+02 9.58002991e+02 9.56230042e+02 9.57051208e+02 9.56839233e+02 9.59192810e+02 9.59282837e+02 9.58697388e+02 9.56601929e+02 9.54956177e+02 9.56771973e+02 9.58049988e+02 9.58273865e+02 9.56704590e+02 9.56706970e+02 9.57286316e+02 9.58250183e+02 9.58109009e+02 9.57997070e+02 9.57701965e+02 9.59146301e+02 9.58658997e+02 9.58984009e+02 9.57406982e+02 9.56540405e+02 9.53413757e+02 9.52718506e+02 9.53877625e+02 9.55640991e+02 9.54214111e+02 9.53188049e+02 9.53316956e+02 0. 0. 1.77870312e+03 1.77778760e+03 1.77861682e+03 1.77864612e+03 1.77642639e+03 1.77713757e+03 1.77655493e+03 1.77692126e+03 1.77724207e+03 1.77714648e+03 1.77658594e+03 1.77558704e+03 1.77750745e+03 1.77679492e+03 1.77507532e+03 1.77377246e+03 1.77499084e+03 1.77517041e+03 1.77500037e+03 1.77626733e+03 1.77687317e+03 1.77720398e+03 1.77490161e+03 1.77587988e+03 1.77446521e+03 1.77488879e+03 1.77358557e+03 1.77472058e+03 1.77482178e+03 1.77553210e+03 1.77622473e+03 1.77657593e+03 1.77600500e+03 1.77420654e+03 1.77468408e+03 1.77573022e+03 1.77749817e+03 1.77715955e+03 1.77681641e+03 1.77665332e+03 1.77737231e+03 1.77774573e+03 1.77533325e+03 1.77444031e+03 1.77342871e+03
    5.50260010e+02 5.47316833e+02 5.45833801e+02 5.44362610e+02 5.42690735e+02 0. 0. 0. 0. 0. 0. 0. 0. 0. 0. 0. 0. 0. 0. 0. 0. 0. 0. 0. 0. 0. 0. 0. 0. 0. 0. 0. 0. 0. 0. 0. 0. 0. 5.51518921e+02 5.54510742e+02 5.58439941e+02 5.67455872e+02 5.88757324e+02 0. 0. 8.73097412e+02 8.79810852e+02 8.82731323e+02 8.86409546e+02 8.87666321e+02 8.90338257e+02 8.91072449e+02 8.93231873e+02 8.93622742e+02 8.95053406e+02 8.95262817e+02 8.95250549e+02 8.94384521e+02 8.94040710e+02 8.93780029e+02 8.94353271e+02 8.94956726e+02 8.95475159e+02 8.96510742e+02 8.97976257e+02 8.99955566e+02 9.01139954e+02 9.02491577e+02 9.03397339e+02 9.05283142e+02 9.06816772e+02 9.12930786e+02 9.21281982e+02 9.30397095e+02 9.33049133e+02 9.35356140e+02 9.37072144e+02 9.40799011e+02 9.47167419e+02 9.55016174e+02 9.59044800e+02 9.59311890e+02 9.59220398e+02 9.57786743e+02 9.58725952e+02 9.57778015e+02 9.59021851e+02 9.59370850e+02 9.60294861e+02 9.61076660e+02 9.60681335e+02 9.61568176e+02 9.60654480e+02 9.62264771e+02 9.61352478e+02 9.62221741e+02 9.62523987e+02 9.64543030e+02 9.63352295e+02 9.61775146e+02 9.60670959e+02 9.61864014e+02 9.61900085e+02 9.61671997e+02 9.61587463e+02 9.61495422e+02 9.61803284e+02 9.62039307e+02 9.62824646e+02 9.62544312e+02 9.61955688e+02 9.63202087e+02 9.63031006e+02 9.63951965e+02 9.62712524e+02 9.61716309e+02 9.61374207e+02 9.62032227e+02 9.61879700e+02 9.60658508e+02 9.61505981e+02 9.61687073e+02 9.62087463e+02 9.60845764e+02 9.61279602e+02 9.61378052e+02 9.61503052e+02 9.62124573e+02 9.60986389e+02 9.60437134e+02 9.60732849e+02 9.61947632e+02 9.61186829e+02 9.61124634e+02 9.62044617e+02 9.63005188e+02 9.61551270e+02 9.59588379e+02 9.59446472e+02 9.58989563e+02 9.58427979e+02 9.58019104e+02 9.59412048e+02 9.60591736e+02 9.59213806e+02 9.57430969e+02 9.56203857e+02 9.58421387e+02 9.59892944e+02 9.60379272e+02 9.58770386e+02 9.58017944e+02 9.58259583e+02 9.58806030e+02 9.59583984e+02 9.58462097e+02 9.58505127e+02 9.59367126e+02 9.60761292e+02 9.61156311e+02 9.60266357e+02 9.58689270e+02 9.56006042e+02 9.55262451e+02 9.56839539e+02 9.59518616e+02 9.58776978e+02 9.56911133e+02 9.55698914e+02 0. 0. 1.78037878e+03 1.77951025e+03 1.77901086e+03 1.77934229e+03 1.77848865e+03 1.77953320e+03 1.78010645e+03 1.77839734e+03 1.78001111e+03 1.77826392e+03 1.77987451e+03 1.77786023e+03 1.77925403e+03 1.77731482e+03 1.77725989e+03 1.77628748e+03 1.77708899e+03 1.77650427e+03 1.77707239e+03 1.77776221e+03 1.77923303e+03 1.77968933e+03 1.77835339e+03 1.77765430e+03 1.77571777e+03 1.77536438e+03 1.77393396e+03 1.77541040e+03 1.77624146e+03 1.77595923e+03 1.77522412e+03 1.77389343e+03 1.77295972e+03 1.77245361e+03 1.77499890e+03 1.77682092e+03 1.77859167e+03 1.77778601e+03 1.77870435e+03 1.77922168e+03 1.78072034e+03 1.78056165e+03 1.77872546e+03 1.77679431e+03 1.77659875e+03
    5.46890137e+02 5.44172607e+02 5.42950928e+02 5.41127991e+02 5.40684875e+02 5.39321472e+02 0. 0. 0. 0. 0. 0. 0. 0. 0. 0. 0. 0. 0. 0. 0. 0. 0. 0. 0. 0. 0. 0. 0. 0. 0. 0. 0. 0. 0. 0. 0. 5.49547974e+02 5.50795593e+02 5.52862976e+02 5.58489258e+02 5.69228333e+02 5.96360535e+02 0. 8.53231934e+02 8.77231628e+02 8.82504456e+02 8.85182495e+02 8.88211548e+02 8.90184509e+02 8.92701538e+02 8.94334717e+02 8.96851135e+02 8.97658142e+02 8.98231323e+02 8.96998352e+02 8.96538879e+02 8.95862549e+02 8.96156738e+02 8.96285767e+02 8.97753906e+02 8.97467102e+02 8.97889404e+02 8.97733459e+02 8.99484863e+02 8.99902161e+02 9.00699524e+02 9.00844788e+02 9.01341919e+02 9.02372314e+02 9.06325256e+02 9.14178833e+02 9.23657959e+02 9.29184631e+02 9.29983398e+02 9.30512146e+02 9.32344299e+02 9.36430542e+02 9.45372559e+02 9.52691589e+02 9.56712097e+02 9.57563293e+02 9.58140137e+02 9.56511292e+02 9.56584595e+02 9.56530823e+02 9.56963440e+02 9.57613464e+02 9.57758850e+02 9.58203979e+02 9.57585815e+02 9.58482117e+02 9.57699158e+02 9.58347351e+02 9.57827576e+02 9.59067871e+02 9.59918274e+02 9.61091614e+02 9.60883362e+02 9.60217529e+02 9.60634766e+02 9.60534302e+02 9.59317810e+02 9.57855408e+02 9.59488281e+02 9.60618713e+02 9.61335327e+02 9.60250183e+02 9.60978210e+02 9.60811707e+02 9.61341858e+02 9.61246582e+02 9.60730164e+02 9.60423462e+02 9.60727966e+02 9.59715088e+02 9.60794556e+02 9.60506042e+02 9.61266724e+02 9.58951477e+02 9.58929077e+02 9.58410522e+02 9.59936096e+02 9.60046326e+02 9.61030640e+02 9.60488281e+02 9.60584900e+02 9.59648132e+02 9.59223511e+02 9.57972168e+02 9.59487366e+02 9.59387024e+02 9.59412903e+02 9.58462036e+02 9.59155579e+02 9.60098083e+02 9.59390991e+02 9.59261719e+02 9.58595520e+02 9.58649536e+02 9.57083435e+02 9.57440491e+02 9.58239563e+02 9.59307190e+02 9.57689575e+02 9.56624207e+02 9.55767029e+02 9.57119812e+02 9.58334045e+02 9.58985840e+02 9.58930359e+02 9.58493164e+02 9.59618469e+02 9.58682739e+02 9.59227783e+02 9.56893005e+02 9.57535400e+02 9.57066284e+02 9.58538696e+02 9.58425476e+02 9.59336304e+02 9.57537781e+02 9.56762146e+02 9.54904846e+02 9.56873779e+02 9.58441162e+02 9.58500977e+02 9.57798584e+02 9.55576599e+02 0. 0. 1.78045911e+03 1.78022412e+03 1.77883069e+03 1.77935144e+03 1.77809204e+03 1.77936389e+03 1.78026575e+03 1.77834277e+03 1.77932898e+03 1.77710303e+03 1.77746436e+03 1.77473962e+03 1.77526257e+03 1.77518469e+03 1.77543225e+03 1.77463904e+03 1.77397327e+03 1.77274548e+03 1.77318091e+03 1.77402502e+03 1.77773645e+03 1.77940540e+03 1.77837708e+03 1.77702783e+03 1.77470496e+03 1.77469568e+03 1.77231909e+03 1.77501147e+03 1.77558606e+03 1.77489502e+03 1.77255225e+03 1.77071851e+03 1.77031226e+03 1.77085657e+03 1.77408740e+03 1.77631885e+03 1.77744934e+03 1.77684912e+03 1.77639697e+03 1.77636072e+03 1.77748621e+03 1.77778955e+03 1.77691162e+03 1.77536731e+03 1.77383191e+03
    5.49180115e+02 5.46195923e+02 5.44362549e+02 5.42822754e+02 5.42911011e+02 5.41353333e+02 0. 0. 0. 0. 0. 0. 0. 0. 0. 0. 0. 0. 0. 0. 0. 0. 0. 0. 0. 0. 0. 0. 0. 0. 0. 0. 0. 0. 0. 0. 0. 5.52140076e+02 5.54152344e+02 5.57905151e+02 5.63775146e+02 5.76305237e+02 6.06469727e+02 0. 8.61447449e+02 8.82565979e+02 8.88754578e+02 8.91731995e+02 8.93543640e+02 8.95217773e+02 8.97354309e+02 8.99221863e+02 9.01171570e+02 9.03274231e+02 9.04126709e+02 9.04152100e+02 9.02685242e+02 9.02569397e+02 9.01863220e+02 9.02394165e+02 9.02432617e+02 9.02331055e+02 9.01131409e+02 9.01021484e+02 9.02130737e+02 9.03018860e+02 9.02404297e+02 9.01568115e+02 9.02968994e+02 9.07454590e+02 9.15558838e+02 9.22627747e+02 9.28665527e+02 9.30479858e+02 9.30041809e+02 9.30810120e+02 9.32571716e+02 9.39385742e+02 9.49071594e+02 9.56177185e+02 9.58498657e+02 9.59701233e+02 9.59373352e+02 9.58014160e+02 9.57055542e+02 9.58088318e+02 9.58283020e+02 9.60330566e+02 9.61420593e+02 9.62254333e+02 9.60871643e+02 9.62229492e+02 9.62074402e+02 9.61933899e+02 9.60377747e+02 9.61741577e+02 9.62613586e+02 9.62481506e+02 9.62089233e+02 9.61921875e+02 9.62911438e+02 9.62720154e+02 9.61418579e+02 9.60037170e+02 9.60532104e+02 9.61326111e+02 9.62431091e+02 9.62396973e+02 9.63799377e+02 9.64006409e+02 9.63692139e+02 9.62903992e+02 9.62322083e+02 9.62394775e+02 9.62347595e+02 9.61300110e+02 9.62238647e+02 9.62352051e+02 9.62803284e+02 9.61053345e+02 9.60667358e+02 9.60020325e+02 9.61366333e+02 9.62134705e+02 9.63703735e+02 9.63368652e+02 9.61959229e+02 9.60561890e+02 9.59238464e+02 9.58325378e+02 9.60776733e+02 9.61108643e+02 9.61726501e+02 9.59830200e+02 9.60569641e+02 9.61330994e+02 9.60648254e+02 9.61457031e+02 9.61057495e+02 9.61794800e+02 9.60254639e+02 9.60344360e+02 9.59761841e+02 9.59730652e+02 9.59233337e+02 9.58266785e+02 9.58721985e+02 9.58904419e+02 9.60440857e+02 9.59990906e+02 9.60504944e+02 9.60892883e+02 9.62443970e+02 9.61169312e+02 9.61430847e+02 9.59006531e+02 9.60036621e+02 9.57574402e+02 9.57677856e+02 9.57698730e+02 9.60601318e+02 9.60897095e+02 9.59923218e+02 9.58501160e+02 9.59173767e+02 9.59714478e+02 9.59580139e+02 9.59783997e+02 9.56954712e+02 0. 0. 1.78131616e+03 1.78063147e+03 1.77997070e+03 1.78120459e+03 1.77896643e+03 1.77987402e+03 1.78089270e+03 1.78144250e+03 1.78276184e+03 1.78067773e+03 1.78102869e+03 1.77855664e+03 1.77694653e+03 1.77624927e+03 1.77683008e+03 1.77843848e+03 1.77827881e+03 1.77630615e+03 1.77657019e+03 1.77686316e+03 1.77951062e+03 1.77980420e+03 1.77986450e+03 1.77823682e+03 1.77775085e+03 1.77659204e+03 1.77642651e+03 1.77617151e+03 1.77595630e+03 1.77515161e+03 1.77458887e+03 1.77397180e+03 1.77366980e+03 1.77354041e+03 1.77619568e+03 1.77767712e+03 1.77911267e+03 1.77729175e+03 1.77742847e+03 1.77627002e+03 1.77816187e+03 1.77783667e+03 1.77807727e+03 1.77528369e+03 1.77398682e+03
    5.44112488e+02 5.42184570e+02 5.42185242e+02 5.40499634e+02 5.41090210e+02 5.38725281e+02 5.39316345e+02 0. 0. 0. 0. 0. 0. 0. 0. 0. 0. 0. 0. 0. 0. 0. 0. 0. 0. 0. 0. 0. 0. 0. 0. 0. 0. 0. 0. 0. 5.48295593e+02 5.50301941e+02 5.53148193e+02 5.56843506e+02 5.63843079e+02 5.78999878e+02 6.16079712e+02 0. 8.61061890e+02 8.78485474e+02 8.85908142e+02 8.91217896e+02 8.94056152e+02 8.97129028e+02 8.99980530e+02 9.01327576e+02 9.02918396e+02 9.04042480e+02 9.06330200e+02 9.05970154e+02 9.04598694e+02 9.03381958e+02 9.03187561e+02 9.02794128e+02 9.02338928e+02 9.01035461e+02 8.99948181e+02 8.99222595e+02 8.99919067e+02 9.00303955e+02 9.00804260e+02 9.01644897e+02 9.08029419e+02 9.16169250e+02 9.25664856e+02 9.28500488e+02 9.31073853e+02 9.29160950e+02 9.29995911e+02 9.30771362e+02 9.33918884e+02 9.39186340e+02 9.46506226e+02 9.52578247e+02 9.55688782e+02 9.56955322e+02 9.56969482e+02 9.56119080e+02 9.56014526e+02 9.57282227e+02 9.56775879e+02 9.58793030e+02 9.59646484e+02 9.60465515e+02 9.59476990e+02 9.60609802e+02 9.61063843e+02 9.59859497e+02 9.58691711e+02 9.60317688e+02 9.61527344e+02 9.60686584e+02 9.60280701e+02 9.60132446e+02 9.60634827e+02 9.59459290e+02 9.58510376e+02 9.58643372e+02 9.59127930e+02 9.60948975e+02 9.61699707e+02 9.61392822e+02 9.61595398e+02 9.60832825e+02 9.60501465e+02 9.59379028e+02 9.59567932e+02 9.57943237e+02 9.58232910e+02 9.59095032e+02 9.61484863e+02 9.61360474e+02 9.60374756e+02 9.59872131e+02 9.59250366e+02 9.58941772e+02 9.60559021e+02 9.60944946e+02 9.62087219e+02 9.60570557e+02 9.60542236e+02 9.58771118e+02 9.59169678e+02 9.59349060e+02 9.61839783e+02 9.61059204e+02 9.60600586e+02 9.59100220e+02 9.59344177e+02 9.59159058e+02 9.57983887e+02 9.59033691e+02 9.59680359e+02 9.61206787e+02 9.60161499e+02 9.58973633e+02 9.57901062e+02 9.57641785e+02 9.58668762e+02 9.58687439e+02 9.59134949e+02 9.58282288e+02 9.58283875e+02 9.57214294e+02 9.58217529e+02 9.59832458e+02 9.60450623e+02 9.58805725e+02 9.58457275e+02 9.58772461e+02 9.60023438e+02 9.57745117e+02 9.56917725e+02 9.55546570e+02 9.57563538e+02 9.58523010e+02 9.59512207e+02 9.58036682e+02 9.57041748e+02 9.56639099e+02 9.56193054e+02 9.56185547e+02 9.53743042e+02 0. 0. 1.78010034e+03 1.77804614e+03 1.77787061e+03 1.78035205e+03 1.77672241e+03 1.77764258e+03 1.77669678e+03 1.77890637e+03 1.77926233e+03 1.77892786e+03 1.77951343e+03 1.77811145e+03 1.77735156e+03 1.77752698e+03 1.77684753e+03 1.77831433e+03 1.77775647e+03 1.77568542e+03 1.77513452e+03 1.77541345e+03 1.77716736e+03 1.77801135e+03 1.77787256e+03 1.77818237e+03 1.77583594e+03 1.77445068e+03 1.77535376e+03 1.77518372e+03 1.77454871e+03 1.77295862e+03 1.77274170e+03 1.77355139e+03 1.77381726e+03 1.77466455e+03 1.77543774e+03 1.77678174e+03 1.77727551e+03 1.77695288e+03 1.77569836e+03 1.77571289e+03 1.77670068e+03 1.77598364e+03 1.77454565e+03 1.77279980e+03 1.77202246e+03
    5.43861633e+02 5.42050110e+02 5.42329163e+02 5.42107483e+02 5.43079407e+02 5.41536194e+02 5.40692749e+02 5.39769592e+02 0. 0. 0. 0. 0. 0. 0. 0. 0. 0. 0. 0. 0. 0. 0. 0. 0. 0. 0. 0. 0. 0. 0. 0. 0. 0. 0. 0. 5.51459778e+02 5.53931091e+02 5.56135559e+02 5.59325439e+02 5.67330017e+02 5.85089172e+02 0. 0. 8.60907959e+02 8.74826965e+02 8.83644409e+02 8.91523438e+02 8.95945740e+02 8.99261047e+02 9.02995972e+02 9.03659912e+02 9.05790771e+02 9.06678772e+02 9.10526001e+02 9.11101746e+02 9.10078003e+02 9.07778015e+02 9.06126343e+02 9.05089294e+02 9.03281067e+02 9.01875366e+02 9.00594666e+02 8.99878113e+02 8.99525085e+02 9.01988831e+02 9.07486877e+02 9.13337036e+02 9.20574036e+02 9.27481873e+02 9.34030762e+02 9.34569824e+02 9.34403259e+02 9.32980042e+02 9.34531433e+02 9.36060608e+02 9.39554993e+02 9.43523071e+02 9.49947327e+02 9.53701782e+02 9.56684998e+02 9.58265564e+02 9.59183472e+02 9.59593506e+02 9.60244202e+02 9.61145996e+02 9.60396729e+02 9.61277344e+02 9.62238892e+02 9.63964783e+02 9.63749146e+02 9.64912842e+02 9.65015869e+02 9.64075012e+02 9.62573669e+02 9.62567322e+02 9.62976379e+02 9.62313477e+02 9.62357178e+02 9.62347290e+02 9.62311157e+02 9.61615845e+02 9.61670959e+02 9.62579224e+02 9.62201172e+02 9.63000671e+02 9.63021484e+02 9.63039429e+02 9.63425598e+02 9.63566833e+02 9.62561951e+02 9.61787231e+02 9.62021851e+02 9.62392578e+02 9.61751099e+02 9.62155151e+02 9.63138977e+02 9.64007874e+02 9.62472412e+02 9.62631653e+02 9.62270996e+02 9.63957214e+02 9.64164001e+02 9.63942139e+02 9.62981323e+02 9.62262268e+02 9.61973572e+02 9.61531250e+02 9.61271973e+02 9.61609802e+02 9.63132385e+02 9.63630737e+02 9.63295898e+02 9.61934387e+02 9.61440674e+02 9.61030823e+02 9.59003967e+02 9.58959534e+02 9.59851074e+02 9.62128540e+02 9.62201050e+02 9.61498352e+02 9.60538086e+02 9.60091064e+02 9.60514954e+02 9.60218628e+02 9.61220825e+02 9.60608887e+02 9.60905579e+02 9.59259033e+02 9.59634155e+02 9.61380249e+02 9.60840881e+02 9.60661133e+02 9.59567383e+02 9.60140320e+02 9.59704163e+02 9.58536133e+02 9.58884705e+02 9.57798340e+02 9.58348511e+02 9.59923035e+02 9.60053406e+02 9.59161499e+02 9.57029053e+02 9.56870972e+02 9.56266663e+02 9.55304504e+02 9.55867981e+02 0. 0. 1.77978699e+03 1.77697961e+03 1.77841553e+03 1.77967346e+03 1.77770801e+03 1.77699768e+03 1.77698315e+03 1.77944080e+03 1.78011548e+03 1.77974670e+03 1.77976941e+03 1.78038989e+03 1.77940784e+03 1.77948865e+03 1.77841760e+03 1.78014941e+03 1.78070837e+03 1.77912268e+03 1.77858850e+03 1.77794934e+03 1.77821277e+03 1.77977917e+03 1.78015869e+03 1.78096521e+03 1.77762219e+03 1.77556946e+03 1.77645593e+03 1.77604041e+03 1.77528430e+03 1.77512256e+03 1.77650342e+03 1.77837024e+03 1.77738232e+03 1.77717639e+03 1.77563586e+03 1.77558740e+03 1.77601624e+03 1.77705615e+03 1.77595312e+03 1.77703723e+03 1.77808923e+03 1.77827124e+03 1.77647864e+03 1.77503979e+03 1.77545569e+03
    5.41914185e+02 5.39497559e+02 5.39363159e+02 5.38499023e+02 5.39359497e+02 5.38439148e+02 5.37254089e+02 5.36038513e+02 5.35554016e+02 5.34127747e+02 0. 0. 0. 0. 0. 0. 0. 0. 0. 0. 0. 0. 0. 0. 0. 0. 0. 0. 0. 0. 0. 0. 0. 0. 0. 5.47565979e+02 5.50720215e+02 5.52299377e+02 5.54399231e+02 5.57954285e+02 5.68236206e+02 5.90198669e+02 0. 0. 8.63086182e+02 8.68462585e+02 8.76635437e+02 8.85266296e+02 8.92038879e+02 8.96415283e+02 9.00918152e+02 9.01579468e+02 9.02919861e+02 9.03778625e+02 9.07618103e+02 9.08442688e+02 9.07567749e+02 9.04978088e+02 9.03905762e+02 9.03158936e+02 9.01749451e+02 8.99650452e+02 8.99327759e+02 9.00331482e+02 9.02626709e+02 9.07578125e+02 9.16124634e+02 9.24350403e+02 9.29982910e+02 9.32309204e+02 9.34062683e+02 9.31200928e+02 9.30767761e+02 9.28736450e+02 9.33004150e+02 9.34243591e+02 9.38846191e+02 9.40856323e+02 9.48858521e+02 9.51542725e+02 9.54996216e+02 9.56353333e+02 9.59426086e+02 9.59772095e+02 9.61674133e+02 9.61183289e+02 9.60790649e+02 9.60347290e+02 9.61101746e+02 9.62840088e+02 9.62407837e+02 9.62424255e+02 9.62101501e+02 9.61609192e+02 9.61826050e+02 9.60584290e+02 9.60715759e+02 9.59151123e+02 9.59818420e+02 9.60087708e+02 9.60409302e+02 9.60244995e+02 9.59342346e+02 9.60002319e+02 9.59202820e+02 9.60094421e+02 9.59628052e+02 9.59883972e+02 9.59922302e+02 9.60338623e+02 9.61083557e+02 9.60853394e+02 9.60590942e+02 9.60339661e+02 9.60138123e+02 9.61375122e+02 9.62692505e+02 9.63601990e+02 9.61560181e+02 9.60134583e+02 9.59670715e+02 9.61557922e+02 9.61745178e+02 9.61084229e+02 9.59561279e+02 9.59558838e+02 9.60936646e+02 9.60832520e+02 9.60709534e+02 9.60111694e+02 9.61556091e+02 9.61899841e+02 9.62156555e+02 9.60625610e+02 9.59588013e+02 9.58554321e+02 9.57059326e+02 9.56781799e+02 9.57870361e+02 9.58986389e+02 9.58648071e+02 9.57290466e+02 9.58259888e+02 9.58657959e+02 9.59876099e+02 9.59550110e+02 9.60242737e+02 9.59241577e+02 9.58915771e+02 9.58283752e+02 9.58442078e+02 9.59742920e+02 9.58568970e+02 9.59604126e+02 9.58651245e+02 9.58747437e+02 9.56788757e+02 9.57487122e+02 9.59170654e+02 9.57907776e+02 9.55697998e+02 9.55335022e+02 9.56225037e+02 9.57067322e+02 9.56697144e+02 9.56964783e+02 9.55972717e+02 9.54904297e+02 9.55611328e+02 0. 0. 1.77823914e+03 1.77531702e+03 1.77564246e+03 1.77657776e+03 1.77734790e+03 1.77693628e+03 1.77558789e+03 1.77515710e+03 1.77608826e+03 1.77685022e+03 1.77747241e+03 1.77815405e+03 1.77829297e+03 1.77972644e+03 1.77819373e+03 1.77811499e+03 1.77732959e+03 1.77762805e+03 1.77763110e+03 1.77675366e+03 1.77677637e+03 1.77778760e+03 1.77747510e+03 1.77715906e+03 1.77472986e+03 1.77282739e+03 1.77280396e+03 1.77337378e+03 1.77378064e+03 1.77417371e+03 1.77469897e+03 1.77677686e+03 1.77635913e+03 1.77664148e+03 1.77420129e+03 1.77366443e+03 1.77286365e+03 1.77519763e+03 1.77335596e+03 1.77438745e+03 1.77490051e+03 1.77725366e+03 1.77640649e+03 1.77611401e+03 1.77544617e+03
    5.45795959e+02 5.42786621e+02 5.40845764e+02 5.40260193e+02 5.40912292e+02 5.40231384e+02 5.38557617e+02 0. 5.37886108e+02 5.37287109e+02 5.36865967e+02 0. 0. 0. 0. 0. 0. 0. 0. 0. 0. 0. 0. 0. 0. 0. 0. 0. 0. 0. 0. 0. 0. 0. 5.48403870e+02 0. 5.53710876e+02 5.55453796e+02 5.57554199e+02 5.62926819e+02 5.75542664e+02 6.00348755e+02 0. 0. 8.78009949e+02 8.81633057e+02 8.86790161e+02 8.90357056e+02 8.94519104e+02 8.96571350e+02 8.99177734e+02 8.98578003e+02 9.00876953e+02 9.03478638e+02 9.06797729e+02 9.07390686e+02 9.06060303e+02 9.04325134e+02 9.02702209e+02 9.03541199e+02 9.05125061e+02 9.05213135e+02 9.06691467e+02 9.11000732e+02 9.16665955e+02 9.22901184e+02 9.28025513e+02 9.35331177e+02 9.37545776e+02 9.37488647e+02 9.34525269e+02 9.31091614e+02 9.31088684e+02 9.30265198e+02 9.35060791e+02 9.37074707e+02 9.40122986e+02 9.42322449e+02 9.51236938e+02 9.55578491e+02 9.58233459e+02 9.58994507e+02 9.60701172e+02 9.61079651e+02 9.63173096e+02 9.62861389e+02 9.62476135e+02 9.61468018e+02 9.62402161e+02 9.64475586e+02 9.64359924e+02 9.64607300e+02 9.64427002e+02 9.64960083e+02 9.64645569e+02 9.62686218e+02 9.61470398e+02 9.60194214e+02 9.60601868e+02 9.61570251e+02 9.62990784e+02 9.64277954e+02 9.63977539e+02 9.63563599e+02 9.62310486e+02 9.62029236e+02 9.60486206e+02 9.60548767e+02 9.61015259e+02 9.63605286e+02 9.64113770e+02 9.63933716e+02 9.62236877e+02 9.63610474e+02 9.63151245e+02 9.64257080e+02 9.64272888e+02 9.64831299e+02 9.63392090e+02 9.62372498e+02 9.62322571e+02 9.63016113e+02 9.61986694e+02 9.61350708e+02 9.60161133e+02 9.61272034e+02 9.62498657e+02 9.63607666e+02 9.61970764e+02 9.60773804e+02 9.60909973e+02 9.62629944e+02 9.63806824e+02 9.62756348e+02 9.61028015e+02 9.60183533e+02 9.59260193e+02 9.58599854e+02 9.59124634e+02 9.60084167e+02 9.60685913e+02 9.60343079e+02 9.60763062e+02 9.60395020e+02 9.60822083e+02 9.60867310e+02 9.62057251e+02 9.61977966e+02 9.61574646e+02 9.60819153e+02 9.59705750e+02 9.59181824e+02 9.59368225e+02 9.60973694e+02 9.62401794e+02 9.60679993e+02 9.58045715e+02 9.58280029e+02 9.61080505e+02 9.61761658e+02 9.58873047e+02 9.57816833e+02 9.57058960e+02 9.58898438e+02 9.58575623e+02 9.58587463e+02 9.57491943e+02 9.56863831e+02 9.57884521e+02 9.59623474e+02 0. 1.77969568e+03 1.77805652e+03 1.77628723e+03 1.77562256e+03 1.77722583e+03 1.77901367e+03 1.77961340e+03 1.77735693e+03 1.77801685e+03 1.77736816e+03 1.77926917e+03 1.77912268e+03 1.77866235e+03 1.77941699e+03 1.77916528e+03 1.77862634e+03 1.77663635e+03 1.77741797e+03 1.77886157e+03 1.77841187e+03 1.77754370e+03 1.77761755e+03 1.77755750e+03 1.77598474e+03 1.77565479e+03 1.77456677e+03 1.77535645e+03 1.77501111e+03 1.77643018e+03 1.77697803e+03 1.77746790e+03 1.77938391e+03 1.77930249e+03 1.77948901e+03 1.77691968e+03 1.77680371e+03 1.77627771e+03 1.77852795e+03 1.77530322e+03 1.77413293e+03 1.77472021e+03 1.77776208e+03 1.77819666e+03 1.77632166e+03 1.77577344e+03
    5.48141113e+02 5.44522095e+02 5.41369690e+02 5.38829651e+02 5.39429932e+02 5.37546997e+02 5.36411743e+02 5.34612366e+02 5.35735779e+02 5.35008179e+02 5.35288452e+02 5.33510742e+02 0. 0. 0. 0. 0. 0. 0. 0. 0. 0. 0. 0. 0. 0. 0. 0. 0. 0. 0. 0. 0. 0. 5.48150879e+02 5.50503479e+02 5.52245667e+02 5.53328735e+02 5.57085815e+02 5.64770752e+02 5.80586304e+02 6.10751770e+02 0. 8.71226501e+02 8.89449280e+02 8.96240906e+02 9.01950806e+02 9.01543396e+02 9.02748108e+02 9.01985474e+02 9.02578979e+02 9.00981018e+02 9.01539734e+02 9.03993042e+02 9.04923645e+02 9.05629272e+02 9.05001526e+02 9.06098755e+02 9.06244324e+02 9.08656006e+02 9.14391602e+02 9.18372070e+02 9.21065308e+02 9.24363464e+02 9.27903931e+02 9.30751526e+02 9.31169189e+02 9.35422424e+02 9.38630127e+02 9.37540466e+02 9.33328369e+02 9.28732178e+02 9.29140442e+02 9.29288757e+02 9.33149780e+02 9.36645081e+02 9.38935913e+02 9.42037170e+02 9.51061279e+02 9.57044189e+02 9.59807922e+02 9.60624207e+02 9.60113708e+02 9.59008850e+02 9.60567322e+02 9.61077820e+02 9.61462585e+02 9.60122620e+02 9.60224731e+02 9.60897949e+02 9.61146606e+02 9.61239502e+02 9.61928467e+02 9.62739868e+02 9.62759888e+02 9.60976074e+02 9.59398743e+02 9.58378418e+02 9.57857239e+02 9.58181946e+02 9.59379028e+02 9.61781677e+02 9.61431458e+02 9.61454773e+02 9.60171570e+02 9.60460510e+02 9.58994202e+02 9.58719055e+02 9.59904419e+02 9.62515930e+02 9.63785461e+02 9.63208923e+02 9.60789246e+02 9.60235229e+02 9.59645935e+02 9.61610352e+02 9.62606934e+02 9.62207703e+02 9.61334961e+02 9.60060852e+02 9.60451050e+02 9.59094910e+02 9.58477051e+02 9.57866638e+02 9.58428955e+02 9.59922180e+02 9.60975891e+02 9.61906067e+02 9.60898010e+02 9.60239929e+02 9.60007812e+02 9.59883240e+02 9.61294922e+02 9.60858826e+02 9.59941589e+02 9.58469421e+02 9.58039062e+02 9.58197815e+02 9.59530212e+02 9.59136780e+02 9.58748718e+02 9.56673340e+02 9.57673462e+02 9.57780212e+02 9.59210266e+02 9.58614868e+02 9.59894958e+02 9.60601074e+02 9.61837524e+02 9.62071411e+02 9.60361633e+02 9.57646179e+02 9.56387268e+02 9.57184631e+02 9.59919006e+02 9.58795044e+02 9.56953369e+02 9.56245667e+02 9.57880737e+02 9.58794312e+02 9.57544556e+02 9.57523682e+02 9.57158813e+02 9.57903748e+02 9.57146423e+02 9.56222778e+02 9.55426147e+02 9.54173401e+02 9.53446350e+02 0. 0. 1.77920239e+03 1.77710278e+03 1.77575134e+03 1.77558008e+03 1.77707874e+03 1.77985376e+03 1.78082068e+03 1.77726184e+03 1.77571130e+03 1.77445215e+03 1.77835083e+03 1.77931824e+03 1.77913208e+03 1.77912476e+03 1.77763782e+03 1.77682056e+03 1.77403723e+03 1.77569238e+03 1.77718762e+03 1.77751245e+03 1.77543359e+03 1.77345630e+03 1.77359460e+03 1.77307910e+03 1.77345874e+03 1.77342273e+03 1.77520935e+03 1.77581018e+03 1.77654688e+03 1.77503772e+03 1.77344543e+03 1.77250342e+03 1.77327429e+03 1.77519788e+03 1.77387292e+03 1.77389746e+03 1.77312146e+03 1.77623059e+03 1.77439417e+03 1.77340637e+03 1.77310657e+03 1.77463013e+03 1.77426086e+03 1.77359058e+03 1.77394958e+03
    5.59122009e+02 5.55645142e+02 5.50452942e+02 5.48339172e+02 5.48123779e+02 5.44832458e+02 5.43316345e+02 5.40510925e+02 5.40516052e+02 5.39400146e+02 5.38887878e+02 5.35903137e+02 5.32639526e+02 5.32292603e+02 0. 5.35088074e+02 0. 0. 0. 0. 0. 0. 0. 0. 0. 0. 0. 0. 0. 0. 0. 0. 0. 0. 5.50185486e+02 5.54090942e+02 5.56206238e+02 5.58262756e+02 5.61614563e+02 5.69282471e+02 5.85496155e+02 6.30473083e+02 0. 8.78017700e+02 8.98101013e+02 9.08147949e+02 9.15252441e+02 9.18052429e+02 9.21076050e+02 9.21129272e+02 9.19788696e+02 9.18731506e+02 9.18424316e+02 9.19520569e+02 9.20087280e+02 9.20645508e+02 9.21021179e+02 9.22578918e+02 9.24093384e+02 9.26460876e+02 9.31293701e+02 9.33941528e+02 9.34281799e+02 9.34109741e+02 9.35210510e+02 9.37214111e+02 9.36011108e+02 9.38222961e+02 9.40355286e+02 9.39555176e+02 9.37512268e+02 9.34574280e+02 9.34820129e+02 9.33157532e+02 9.33985291e+02 9.37425842e+02 9.39942810e+02 9.45699585e+02 9.54368408e+02 9.61539246e+02 9.63040405e+02 9.63539124e+02 9.60963623e+02 9.60784668e+02 9.61046570e+02 9.62148010e+02 9.61736877e+02 9.60764771e+02 9.60741455e+02 9.60736511e+02 9.61593567e+02 9.62721680e+02 9.63598877e+02 9.64354614e+02 9.62976868e+02 9.62922791e+02 9.61405579e+02 9.62011353e+02 9.60679321e+02 9.60828857e+02 9.59950012e+02 9.62360840e+02 9.62772278e+02 9.63875183e+02 9.62714233e+02 9.62838501e+02 9.61843933e+02 9.61606995e+02 9.62665344e+02 9.64620056e+02 9.65450500e+02 9.64974548e+02 9.63886169e+02 9.63294128e+02 9.62486145e+02 9.62963806e+02 9.63029785e+02 9.62496033e+02 9.62465027e+02 9.62320862e+02 9.63571655e+02 9.62743530e+02 9.61752991e+02 9.60269531e+02 9.60054138e+02 9.61247314e+02 9.61321716e+02 9.62741394e+02 9.62616394e+02 9.62985168e+02 9.61823853e+02 9.61901917e+02 9.62487488e+02 9.63188416e+02 9.61587830e+02 9.61511597e+02 9.60416504e+02 9.61421204e+02 9.62372192e+02 9.62581909e+02 9.61032288e+02 9.59505859e+02 9.59211914e+02 9.60687622e+02 9.61385864e+02 9.61484619e+02 9.61529785e+02 9.61475098e+02 9.63135803e+02 9.63315125e+02 9.62640076e+02 9.60012756e+02 9.59082092e+02 9.58675415e+02 9.60729065e+02 9.60804688e+02 9.59594910e+02 9.57877991e+02 9.57567078e+02 9.58630920e+02 9.58458252e+02 9.59356934e+02 9.59020813e+02 9.59300598e+02 9.57281189e+02 9.55421326e+02 9.55418640e+02 9.55419250e+02 9.55989136e+02 9.54061096e+02 0. 1.77979712e+03 1.78009094e+03 1.77993945e+03 1.77716199e+03 1.77803577e+03 1.77923596e+03 1.78259241e+03 1.77902966e+03 1.77890601e+03 1.77745984e+03 1.78135046e+03 1.78126050e+03 1.78136011e+03 1.78017578e+03 1.77950403e+03 1.77787390e+03 1.77634192e+03 1.77710437e+03 1.77853613e+03 1.77949023e+03 1.77722229e+03 1.77516614e+03 1.77390771e+03 1.77483728e+03 1.77556836e+03 1.77681018e+03 1.77802112e+03 1.77816541e+03 1.77733020e+03 1.77677380e+03 1.77534253e+03 1.77425134e+03 1.77384534e+03 1.77528882e+03 1.77448694e+03 1.77455823e+03 1.77472839e+03 1.77778052e+03 1.77691809e+03 1.77662292e+03 1.77594507e+03 1.77501453e+03 1.77433325e+03 1.77315906e+03 1.77548376e+03
    5.53625610e+02 5.55123169e+02 5.53091187e+02 5.51690186e+02 5.50045471e+02 5.45777649e+02 5.43347534e+02 5.39668640e+02 5.38912048e+02 5.37652710e+02 5.39276001e+02 5.36787170e+02 5.34268921e+02 5.33320007e+02 5.33513367e+02 5.34157898e+02 5.32639526e+02 0. 0. 0. 0. 0. 0. 0. 0. 0. 0. 0. 0. 0. 0. 0. 0. 0. 5.47670837e+02 5.50947388e+02 5.54671936e+02 5.57648499e+02 5.62713928e+02 5.71647949e+02 5.91565430e+02 0. 0. 8.77939758e+02 8.98493347e+02 9.10473145e+02 9.18029358e+02 9.23448792e+02 9.28267212e+02 9.30231995e+02 9.30443604e+02 9.32248169e+02 9.32160522e+02 9.32057617e+02 9.31865967e+02 9.33026489e+02 9.33633850e+02 9.34168091e+02 9.36096375e+02 9.36464661e+02 9.38524536e+02 9.39543457e+02 9.40079468e+02 9.39279419e+02 9.38421265e+02 9.38727295e+02 9.35572083e+02 9.35539490e+02 9.36987000e+02 9.37376465e+02 9.38186951e+02 9.36869812e+02 9.35672302e+02 9.31996826e+02 9.30559448e+02 9.34223755e+02 9.38292358e+02 9.46117676e+02 9.56189636e+02 9.61479736e+02 9.62488647e+02 9.62535461e+02 9.60798645e+02 9.61141968e+02 9.61016174e+02 9.61424561e+02 9.60443542e+02 9.59774963e+02 9.60652954e+02 9.60735107e+02 9.60660950e+02 9.60931519e+02 9.61671692e+02 9.61603760e+02 9.60668823e+02 9.60731628e+02 9.60384949e+02 9.61151001e+02 9.60494202e+02 9.60141846e+02 9.57858826e+02 9.59141479e+02 9.59595764e+02 9.60655762e+02 9.59609497e+02 9.60314087e+02 9.61087952e+02 9.61054260e+02 9.61190369e+02 9.61084656e+02 9.62833313e+02 9.63161499e+02 9.63330750e+02 9.61249207e+02 9.60064636e+02 9.59721191e+02 9.60896912e+02 9.61266541e+02 9.62566895e+02 9.61491577e+02 9.62111633e+02 9.61880859e+02 9.61846008e+02 9.60855835e+02 9.60394409e+02 9.60957886e+02 9.61082642e+02 9.61208740e+02 9.62410583e+02 9.61892029e+02 9.61926392e+02 9.61158508e+02 9.61755005e+02 9.61840332e+02 9.60752502e+02 9.60855103e+02 9.59508545e+02 9.60552002e+02 9.60320984e+02 9.61151245e+02 9.59122620e+02 9.58550171e+02 9.57792419e+02 9.59438049e+02 9.60105286e+02 9.59861877e+02 9.59946960e+02 9.59261230e+02 9.60754211e+02 9.60581909e+02 9.61211853e+02 9.59779785e+02 9.58889648e+02 9.58176331e+02 9.58545227e+02 9.58318604e+02 9.58001892e+02 9.57543884e+02 9.57408203e+02 9.57313110e+02 9.56882935e+02 9.58786743e+02 9.58880188e+02 9.59562012e+02 9.57040771e+02 9.55582275e+02 9.55263550e+02 9.56089417e+02 9.56269531e+02 9.55302979e+02 0. 0. 1.77749854e+03 1.78040601e+03 1.77813379e+03 1.77876282e+03 1.77883728e+03 1.78057751e+03 1.77774841e+03 1.77721643e+03 1.77711938e+03 1.77856604e+03 1.77887646e+03 1.77989758e+03 1.77929321e+03 1.77783362e+03 1.77475281e+03 1.77458936e+03 1.77517383e+03 1.77641235e+03 1.77656787e+03 1.77540869e+03 1.77409753e+03 1.77323389e+03 1.77390356e+03 1.77292957e+03 1.77340845e+03 1.77466272e+03 1.77611169e+03 1.77454822e+03 1.77336975e+03 1.77229456e+03 1.77153967e+03 1.77132678e+03 1.77211987e+03 1.77171667e+03 1.77124634e+03 1.77118787e+03 1.77334619e+03 1.77437695e+03 1.77639807e+03 1.77585779e+03 1.77580139e+03 1.77416333e+03 1.77479333e+03 1.77517590e+03
    5.44504761e+02 5.45640198e+02 5.44029785e+02 5.45847290e+02 5.47179443e+02 5.52027527e+02 5.55033508e+02 5.56040955e+02 5.54815979e+02 5.53207214e+02 5.53556824e+02 5.48569458e+02 5.43895142e+02 5.41562866e+02 5.41914856e+02 5.40424805e+02 5.37524414e+02 5.34232483e+02 5.34154785e+02 5.33881897e+02 0. 0. 0. 0. 0. 0. 0. 0. 0. 0. 0. 5.46797058e+02 0. 5.47278992e+02 5.49231140e+02 5.52344788e+02 5.57492554e+02 5.61992737e+02 5.67817871e+02 5.78935547e+02 6.01318298e+02 0. 0. 8.80034485e+02 8.99188293e+02 9.11751038e+02 9.19505676e+02 9.28893188e+02 9.36044434e+02 9.40173645e+02 9.39605896e+02 9.41767273e+02 9.40165161e+02 9.39629944e+02 9.39579956e+02 9.41803711e+02 9.41865662e+02 9.41443420e+02 9.43930359e+02 9.44431702e+02 9.44533081e+02 9.42447693e+02 9.42034363e+02 9.40635071e+02 9.39940491e+02 9.41094177e+02 9.38846680e+02 9.38416443e+02 9.37906616e+02 9.38757202e+02 9.39761047e+02 9.38562134e+02 9.37375488e+02 9.33493713e+02 9.32007324e+02 9.35523376e+02 9.39482300e+02 9.49329773e+02 9.57347107e+02 9.62231812e+02 9.61769897e+02 9.62605591e+02 9.61231750e+02 9.63007141e+02 9.62082397e+02 9.62974670e+02 9.61692627e+02 9.61536987e+02 9.61760620e+02 9.61812561e+02 9.61928589e+02 9.62811462e+02 9.63596802e+02 9.63440979e+02 9.63132446e+02 9.63839844e+02 9.64111145e+02 9.63544373e+02 9.62869263e+02 9.62845154e+02 9.61422363e+02 9.61811768e+02 9.62348755e+02 9.62641357e+02 9.62819580e+02 9.62891663e+02 9.63903625e+02 9.63355408e+02 9.62537048e+02 9.62341553e+02 9.64277893e+02 9.65194397e+02 9.66299744e+02 9.64321594e+02 9.62764954e+02 9.61133789e+02 9.61627441e+02 9.62630920e+02 9.63490967e+02 9.63288086e+02 9.63714172e+02 9.64772827e+02 9.63972778e+02 9.63041748e+02 9.61782837e+02 9.62338074e+02 9.63233826e+02 9.63291687e+02 9.63913147e+02 9.62915100e+02 9.63628845e+02 9.64038330e+02 9.63685608e+02 9.62980164e+02 9.60806702e+02 9.61598083e+02 9.61097717e+02 9.63360718e+02 9.61997742e+02 9.62715515e+02 9.60379883e+02 9.61641479e+02 9.59855347e+02 9.61285950e+02 9.61341919e+02 9.62753906e+02 9.62460327e+02 9.61356201e+02 9.60430969e+02 9.59436951e+02 9.59767517e+02 9.59554871e+02 9.58965210e+02 9.58758362e+02 9.59061707e+02 9.60219543e+02 9.60337219e+02 9.60906433e+02 9.60832458e+02 9.60578308e+02 9.58107788e+02 9.58240662e+02 9.58356934e+02 9.61004456e+02 9.59435852e+02 9.57777893e+02 9.56628296e+02 9.57501709e+02 9.57919922e+02 9.55189392e+02 0. 0. 1.77913110e+03 1.78222034e+03 1.77951038e+03 1.77936633e+03 1.77897620e+03 1.78122412e+03 1.77991418e+03 1.78026294e+03 1.77934033e+03 1.77902979e+03 1.77768237e+03 1.77791638e+03 1.77853064e+03 1.77856604e+03 1.77614502e+03 1.77605896e+03 1.77598901e+03 1.77817493e+03 1.77783997e+03 1.77858032e+03 1.77655872e+03 1.77543982e+03 1.77404333e+03 1.77525012e+03 1.77573267e+03 1.77590234e+03 1.77548499e+03 1.77522949e+03 1.77551172e+03 1.77562891e+03 1.77555798e+03 1.77559656e+03 1.77541528e+03 1.77583411e+03 1.77531128e+03 1.77516821e+03 1.77380408e+03 1.77502917e+03 1.77682214e+03 1.77758289e+03 1.77702747e+03 1.77717529e+03 1.77719470e+03 1.77765002e+03
    5.39918640e+02 5.39329224e+02 5.38071960e+02 5.39435486e+02 5.40673645e+02 5.42432373e+02 5.43086731e+02 5.44930359e+02 5.48346680e+02 5.49272278e+02 5.51168823e+02 5.50709106e+02 5.49518738e+02 5.43984680e+02 5.41592407e+02 5.38916931e+02 5.39470337e+02 5.37779114e+02 5.38199280e+02 5.36494568e+02 5.36884949e+02 5.35756531e+02 5.36799438e+02 5.36694031e+02 0. 0. 0. 0. 0. 0. 5.44116394e+02 5.45528198e+02 5.46038513e+02 5.45650940e+02 5.47385742e+02 5.49734375e+02 5.54987244e+02 5.59233093e+02 5.67223206e+02 5.80718750e+02 6.12285889e+02 0. 8.54069641e+02 8.79474854e+02 8.97315002e+02 9.10182495e+02 9.17351257e+02 9.26263977e+02 9.33316040e+02 9.37811279e+02 9.39230286e+02 9.42559753e+02 9.42632263e+02 9.41569641e+02 9.41121887e+02 9.42844727e+02 9.42518555e+02 9.42097900e+02 9.43366882e+02 9.43416809e+02 9.42345947e+02 9.40203979e+02 9.41325623e+02 9.40146118e+02 9.40101990e+02 9.39914673e+02 9.38163330e+02 9.35809570e+02 9.35573303e+02 9.37316101e+02 9.37503845e+02 9.35439392e+02 9.34017822e+02 9.33320190e+02 9.32903198e+02 9.35227173e+02 9.38312134e+02 9.47672363e+02 9.54760315e+02 9.58532349e+02 9.58835938e+02 9.60645508e+02 9.59546021e+02 9.60818604e+02 9.59934143e+02 9.61422241e+02 9.61435486e+02 9.61001770e+02 9.61499695e+02 9.60771179e+02 9.61019531e+02 9.61131042e+02 9.62379395e+02 9.61392517e+02 9.62322021e+02 9.61554626e+02 9.63016663e+02 9.61362488e+02 9.60945801e+02 9.59987427e+02 9.60046936e+02 9.60838745e+02 9.61575989e+02 9.60056946e+02 9.59980408e+02 9.59710815e+02 9.61040405e+02 9.60840576e+02 9.60435974e+02 9.60975098e+02 9.63062012e+02 9.63914185e+02 9.64530273e+02 9.62326294e+02 9.61047485e+02 9.59298462e+02 9.60412964e+02 9.62130188e+02 9.62716309e+02 9.61973450e+02 9.61099548e+02 9.62115112e+02 9.61681885e+02 9.61850037e+02 9.61451355e+02 9.61708130e+02 9.62059448e+02 9.60837708e+02 9.60916443e+02 9.60302368e+02 9.62238037e+02 9.61916870e+02 9.61871277e+02 9.60972717e+02 9.59950195e+02 9.59528198e+02 9.59182495e+02 9.61497375e+02 9.60247253e+02 9.60960449e+02 9.59287109e+02 9.59923462e+02 9.58464966e+02 9.59076477e+02 9.59858398e+02 9.60385071e+02 9.59842590e+02 9.58641968e+02 9.57157776e+02 9.56520325e+02 9.57607361e+02 9.57946655e+02 9.58161316e+02 9.57105286e+02 9.57561951e+02 9.57185974e+02 9.58425964e+02 9.59667419e+02 9.60671692e+02 9.60196350e+02 9.57959045e+02 9.57671692e+02 9.57606873e+02 9.58169250e+02 9.58095581e+02 9.56235596e+02 9.56091858e+02 9.55188599e+02 9.55573730e+02 9.52675537e+02 0. 0. 1.77483716e+03 1.77650342e+03 1.77707422e+03 1.77663110e+03 1.77714587e+03 1.77871936e+03 1.77945142e+03 1.77847021e+03 1.77683093e+03 1.77575073e+03 1.77598389e+03 1.77591211e+03 1.77682971e+03 1.77673035e+03 1.77521851e+03 1.77464331e+03 1.77446606e+03 1.77631360e+03 1.77574670e+03 1.77640662e+03 1.77477832e+03 1.77508630e+03 1.77438440e+03 1.77486670e+03 1.77372534e+03 1.77319177e+03 1.77246448e+03 1.77270740e+03 1.77254907e+03 1.77417029e+03 1.77479688e+03 1.77411963e+03 1.77286780e+03 1.77289026e+03 1.77406140e+03 1.77411084e+03 1.77248767e+03 1.77238281e+03 1.77453857e+03 1.77590015e+03 1.77672461e+03 1.77490833e+03 1.77494800e+03 1.77510095e+03
    5.39390564e+02 5.37918274e+02 5.36023560e+02 5.36872009e+02 5.37138428e+02 5.39607361e+02 5.38308777e+02 5.39925964e+02 5.39228577e+02 5.39567444e+02 5.39770508e+02 5.41837463e+02 5.46831909e+02 5.49908386e+02 5.49831665e+02 5.50535034e+02 5.50623413e+02 5.48868591e+02 5.47054199e+02 5.43422058e+02 5.41602661e+02 5.40133362e+02 5.40273315e+02 5.40262939e+02 5.40401550e+02 5.40281677e+02 0. 0. 0. 5.44038391e+02 5.45289734e+02 5.46694885e+02 5.46703430e+02 5.47774170e+02 5.50800720e+02 5.54402100e+02 5.58980591e+02 5.63665527e+02 5.72603088e+02 5.88483948e+02 6.29505371e+02 0. 8.58881348e+02 8.80643188e+02 8.98365173e+02 9.11856812e+02 9.19781311e+02 9.28797485e+02 9.35869263e+02 9.39496094e+02 9.40588745e+02 9.43836304e+02 9.44258606e+02 9.44522034e+02 9.44641113e+02 9.46196533e+02 9.43970215e+02 9.43281738e+02 9.43609070e+02 9.44885254e+02 9.43300964e+02 9.42150696e+02 9.42839905e+02 9.41940063e+02 9.41152527e+02 9.41403992e+02 9.41556824e+02 9.41124146e+02 9.40706299e+02 9.41203613e+02 9.38987000e+02 9.36174438e+02 9.35550537e+02 9.36963379e+02 9.37479004e+02 9.39201904e+02 9.41865112e+02 9.51826843e+02 9.56801270e+02 9.60323120e+02 9.60167786e+02 9.61967285e+02 9.60487610e+02 9.61264587e+02 9.61399902e+02 9.64042664e+02 9.64918152e+02 9.63384949e+02 9.62297119e+02 9.61364197e+02 9.62386719e+02 9.63612610e+02 9.64938782e+02 9.64624146e+02 9.64759521e+02 9.64268799e+02 9.65483582e+02 9.64011902e+02 9.63093079e+02 9.61990845e+02 9.62470886e+02 9.63584778e+02 9.64271667e+02 9.62845581e+02 9.63035095e+02 9.62740112e+02 9.63235107e+02 9.63007690e+02 9.62219482e+02 9.63480408e+02 9.64868530e+02 9.65860291e+02 9.66394775e+02 9.65371887e+02 9.64420776e+02 9.62612854e+02 9.62129028e+02 9.63160095e+02 9.62973511e+02 9.62332642e+02 9.61856140e+02 9.61622864e+02 9.61449341e+02 9.62028748e+02 9.62579834e+02 9.62647949e+02 9.62031006e+02 9.61955688e+02 9.61635864e+02 9.61732239e+02 9.62838684e+02 9.63311890e+02 9.63397339e+02 9.62926514e+02 9.62421631e+02 9.62060730e+02 9.61433533e+02 9.63204956e+02 9.62480164e+02 9.62419800e+02 9.60256409e+02 9.60380188e+02 9.60240967e+02 9.61102234e+02 9.61357788e+02 9.61483948e+02 9.60457764e+02 9.59081543e+02 9.57903564e+02 9.57765381e+02 9.58760132e+02 9.60016052e+02 9.60974365e+02 9.60769714e+02 9.60019775e+02 9.60027588e+02 9.59518921e+02 9.59470520e+02 9.59185852e+02 9.60371399e+02 9.58937744e+02 9.57450439e+02 9.57247498e+02 9.57301392e+02 9.57971558e+02 9.56358154e+02 9.56596741e+02 9.54852356e+02 9.54812439e+02 9.50308533e+02 0. 0. 1.77675610e+03 1.77700415e+03 1.77858533e+03 1.77812000e+03 1.77798853e+03 1.77961548e+03 1.78028699e+03 1.78098877e+03 1.77969775e+03 1.77966516e+03 1.77812134e+03 1.77820886e+03 1.77741138e+03 1.77889746e+03 1.77715149e+03 1.77757434e+03 1.77678772e+03 1.77834729e+03 1.77865552e+03 1.77884729e+03 1.77760498e+03 1.77747449e+03 1.77760461e+03 1.77793018e+03 1.77678931e+03 1.77513574e+03 1.77349561e+03 1.77296240e+03 1.77416125e+03 1.77604443e+03 1.77703271e+03 1.77639697e+03 1.77561584e+03 1.77539490e+03 1.77591443e+03 1.77655017e+03 1.77464551e+03 1.77417932e+03 1.77478809e+03 1.77511011e+03 1.77480762e+03 1.77368384e+03 1.77377856e+03 1.77503088e+03</data></depth>
</opencv_storage>
